# .PCD v0.7 - Point Cloud Data file format
VERSION 0.7
FIELDS x y z
SIZE 4 4 4
TYPE F F F
COUNT 1 1 1
WIDTH 684
HEIGHT 1
VIEWPOINT 0 0 0 1 0 0 0
POINTS 684
DATA ascii
-0.082574598 -0.19328192 0.71813327
-0.075159051 -0.19282472 0.71705866
-0.068613142 -0.1921442 0.71899998
-0.082315639 -0.18791345 0.71600002
-0.074551374 -0.18497945 0.71556848
-0.065611616 -0.18407951 0.71745694
-0.073238678 -0.174815 0.71584201
-0.064687446 -0.17482382 0.71590185
-0.058264952 -0.17479488 0.71889991
-0.072685644 -0.16642198 0.71648276
-0.065114014 -0.16549413 0.71720821
-0.059231907 -0.16810907 0.71899998
-0.093666524 -0.23262656 0.72408336
-0.08551465 -0.23373577 0.72665709
-0.10108 -0.2207257 0.72200012
-0.0951382 -0.22515737 0.72409987
-0.086927965 -0.22569969 0.7276563
-0.101164 -0.21677963 0.7226001
-0.095315784 -0.21526749 0.72510362
-0.086188272 -0.21401101 0.72812909
-0.079148583 -0.2103686 0.72899997
-0.092671193 -0.20670176 0.72344989
-0.084703237 -0.20483235 0.72309518
-0.075062163 -0.20463848 0.7264545
-0.066148184 -0.20277283 0.72841173
-0.054803945 -0.20049129 0.72842854
-0.084115386 -0.1983287 0.72057158
-0.074208051 -0.19824789 0.72209096
-0.064413354 -0.19567731 0.72387809
-0.054749347 -0.19480228 0.72654349
-0.047971223 -0.19317724 0.72850001
-0.083552778 -0.18413018 0.72831815
-0.078623816 -0.18162286 0.72100008
-0.063467987 -0.18776777 0.72015393
-0.055192318 -0.18494263 0.72248155
-0.045433532 -0.18455477 0.72688645
-0.039574292 -0.1825971 0.72899997
-0.084115423 -0.17498998 0.72528577
-0.078322224 -0.17551111 0.7203334
-0.053015601 -0.17481473 0.72252494
-0.045891412 -0.17560975 0.72705138
-0.082573861 -0.16683525 0.7272222
-0.076572254 -0.1634098 0.7226128
-0.063499324 -0.1610686 0.72142857
-0.054890629 -0.16478477 0.72460359
-0.048227184 -0.166783 0.72826666
-0.073589347 -0.15535615 0.72502702
-0.064883783 -0.15486957 0.72350001
-0.056677036 -0.1565423 0.7278077
-0.071314186 -0.1477925 0.72855556
-0.065342046 -0.14747283 0.72835004
-0.081538342 -0.24217501 0.73175007
-0.073390119 -0.24281032 0.73472238
-0.06673298 -0.24203441 0.73761547
-0.080755241 -0.23465663 0.73146164
-0.074595444 -0.23485762 0.73411113
-0.067622647 -0.23729292 0.73842096
-0.08280535 -0.22438559 0.7323001
-0.076142393 -0.22528842 0.73648763
-0.069677137 -0.2202924 0.73900002
-0.082104668 -0.21705411 0.73157901
-0.074797943 -0.21531871 0.734025
-0.065195672 -0.2149744 0.73697221
-0.056464899 -0.21324848 0.73804772
-0.04926667 -0.2111429 0.73900002
-0.071739681 -0.20964886 0.73133332
-0.063992195 -0.20682551 0.73157716
-0.055184621 -0.2060878 0.73351437
-0.045635141 -0.20458622 0.73605257
-0.035843305 -0.20162669 0.73799998
-0.091993026 -0.19076954 0.73733336
-0.087733909 -0.19155714 0.73460001
-0.044035565 -0.19562142 0.73178142
-0.035192743 -0.19497417 0.73565984
-0.026721904 -0.19303973 0.7384001
-0.093292646 -0.1845863 0.73560005
-0.087921008 -0.18547475 0.73164713
-0.041075241 -0.18727523 0.73100001
-0.034657829 -0.18481334 0.73369473
-0.027576771 -0.18562421 0.73827785
-0.092539839 -0.17557439 0.73609102
-0.089065038 -0.17444709 0.73142868
-0.042189457 -0.17343561 0.73135716
-0.035463389 -0.17508978 0.73585951
-0.02885619 -0.17806381 0.73900002
-0.090668567 -0.16798097 0.73800009
-0.085847594 -0.16417551 0.73396772
-0.0508219 -0.16082001 0.73100001
-0.043867879 -0.16443689 0.73421282
-0.037417147 -0.16701663 0.73822224
-0.082687631 -0.15629737 0.73644453
-0.078086741 -0.15347271 0.73392868
-0.053333856 -0.15386255 0.73151869
-0.045725655 -0.15560105 0.73650002
-0.080938093 -0.1485038 0.73900002
-0.075224608 -0.14445297 0.73468184
-0.064326152 -0.14324406 0.73165745
-0.055349085 -0.14521067 0.7347542
-0.048635844 -0.14795499 0.73818183
-0.07234031 -0.13644005 0.73668426
-0.065246642 -0.13492449 0.73577774
-0.057757117 -0.13568769 0.73792595
-0.064185582 -0.12837021 0.73828572
-0.051724765 -0.2607533 0.74400008
-0.053258989 -0.25462285 0.74500006
-0.047996309 -0.25189492 0.74662507
-0.06147927 -0.24380144 0.74199998
-0.054699488 -0.24488002 0.74445105
-0.048311971 -0.24766436 0.74757147
-0.06380897 -0.23443265 0.74225008
-0.057193231 -0.23573264 0.74667865
-0.072026663 -0.22594666 0.73999995
-0.06513083 -0.22553341 0.74260402
-0.05490569 -0.22384323 0.74550015
-0.045838945 -0.2226451 0.74688888
-0.038468577 -0.2208381 0.74800003
-0.06277778 -0.21937843 0.74066669
-0.05395624 -0.21720973 0.74128562
-0.044387508 -0.21514802 0.74321431
-0.035091788 -0.2141891 0.74517512
-0.026245324 -0.21278484 0.74723536
-0.10092064 -0.20065399 0.74799997
-0.09528096 -0.2014257 0.74800009
-0.041829936 -0.20834747 0.74085718
-0.033873163 -0.2060948 0.74155551
-0.024813086 -0.20492676 0.74453348
-0.01608241 -0.20277527 0.74789482
-0.10284112 -0.19466239 0.74641657
-0.095241137 -0.19564736 0.74413896
-0.088655964 -0.1967445 0.74175
-0.023091903 -0.19578561 0.74173075
-0.015068393 -0.19494879 0.74627072
-0.10300265 -0.18572177 0.74586356
-0.098178655 -0.18551846 0.74099994
-0.023071563 -0.1843209 0.7429722
-0.016747938 -0.18757385 0.74666667
-0.10092124 -0.17593883 0.74746156
-0.096802175 -0.17392637 0.74330419
-0.030677617 -0.17137194 0.74049997
-0.025716953 -0.17493306 0.74443585
-0.094492726 -0.16516149 0.74502778
-0.089746669 -0.16253094 0.74199998
-0.03345288 -0.1644197 0.74352509
-0.02828938 -0.16661772 0.74692309
-0.091746621 -0.15667211 0.74676466
-0.086701952 -0.15352926 0.74262494
-0.041419685 -0.1526189 0.74133331
-0.036256049 -0.15556708 0.74500006
-0.08382535 -0.14540307 0.74392295
-0.079168253 -0.14071743 0.74000001
-0.050655998 -0.14152762 0.74080002
-0.044951312 -0.1454733 0.74530935
-0.038600575 -0.14770803 0.74780005
-0.081388891 -0.13691163 0.74744457
-0.07650876 -0.13417301 0.7433334
-0.052932601 -0.13409002 0.74340004
-0.047803737 -0.1369516 0.74746156
-0.073431201 -0.12540734 0.74565721
-0.064790048 -0.1239172 0.7427727
-0.055969507 -0.12560809 0.7453751
-0.07085833 -0.1178593 0.74775004
-0.065099254 -0.1176275 0.74704164
-0.059127621 -0.1189676 0.74800003
-0.031763814 -0.2606076 0.75800002
-0.02774881 -0.26179832 0.75675005
-0.043621242 -0.2531589 0.75089997
-0.035418779 -0.25509915 0.75614291
-0.028979322 -0.2573075 0.75799996
-0.051190481 -0.24119049 0.75000018
-0.044672783 -0.24480134 0.75276625
-0.038513519 -0.24550657 0.75730002
-0.052920301 -0.23451927 0.75092316
-0.045289792 -0.235507 0.75489813
-0.037830137 -0.23398858 0.75788248
-0.028154291 -0.2302876 0.75800008
-0.053284023 -0.22878629 0.75044447
-0.044512838 -0.22739556 0.7519474
-0.034885719 -0.22506441 0.75272244
-0.025157647 -0.22448823 0.75480568
-0.01576619 -0.22158147 0.75749999
-0.0061816326 -0.22195037 0.75699991
-0.1030924 -0.21339715 0.75699997
-0.097008981 -0.2108196 0.75771427
-0.032142859 -0.21928568 0.75000018
-0.024071986 -0.21658744 0.75075001
-0.015079479 -0.21467091 0.75421458
-0.0049749268 -0.21488269 0.75558722
0.00071923813 -0.21361375 0.75520009
-0.11350543 -0.20286469 0.75668758
-0.10518206 -0.2041308 0.75407702
-0.095146216 -0.20589507 0.75276184
-0.089523807 -0.2041143 0.75199997
-0.014035151 -0.20657954 0.7505455
-0.0048340573 -0.20492151 0.75393504
0.0041906252 -0.20429519 0.75665617
-0.11372304 -0.19582547 0.75573087
-0.10826536 -0.1950496 0.75172222
-0.011428575 -0.1907143 0.75000012
-0.0050143632 -0.19503258 0.75328588
0.0030293337 -0.19664533 0.75706667
-0.11107502 -0.18731077 0.75677782
-0.10702111 -0.18379867 0.75310528
-0.01414229 -0.1837732 0.75178397
-0.0065031145 -0.1856886 0.75454074
-0.10543549 -0.17509015 0.75465393
-0.021561429 -0.17392428 0.75050002
-0.015242821 -0.17512503 0.7540589
-0.0078126984 -0.17779242 0.75733328
-0.10249715 -0.16617545 0.75536841
-0.098782748 -0.16346954 0.75099999
-0.023979414 -0.16450919 0.75228584
-0.017754734 -0.16726856 0.75647062
-0.1003448 -0.15809713 0.75800008
-0.095717177 -0.15446098 0.75360721
-0.032299399 -0.15343845 0.7519474
-0.026933998 -0.1560607 0.75578785
-0.092825033 -0.14564529 0.7555418
-0.08791478 -0.14377564 0.75305259
-0.042439438 -0.14203754 0.75020003
-0.035047777 -0.14485149 0.75397742
-0.02863556 -0.14847177 0.75799996
-0.090719365 -0.13764316 0.75799996
-0.085235745 -0.13449194 0.75352955
-0.044053052 -0.13431543 0.75220013
-0.036209218 -0.13541372 0.75600022
-0.082997389 -0.12574674 0.75558335
-0.078013457 -0.12372738 0.75149995
-0.052304495 -0.1232 0.75085717
-0.047359079 -0.12511387 0.75421888
-0.081575237 -0.11863303 0.75800008
-0.074886739 -0.11535454 0.75422508
-0.064810954 -0.11316251 0.7513572
-0.05541176 -0.11516316 0.75453866
-0.04885117 -0.11652079 0.75736356
-0.07209114 -0.10627604 0.7575385
-0.065130405 -0.10562757 0.75495839
-0.058425941 -0.10680981 0.75738466
-0.023930049 -0.26166409 0.76145458
-0.032287195 -0.25161505 0.76088899
-0.025018604 -0.2545771 0.76224452
-0.019453932 -0.25471681 0.76362497
-0.033719208 -0.24491315 0.7620334
-0.025629945 -0.24552402 0.76635993
-0.018992569 -0.24499524 0.76700008
-0.034056891 -0.23623735 0.76088464
-0.025448764 -0.23550747 0.76354295
-0.015303859 -0.23466584 0.76520008
-0.0084500965 -0.23293832 0.76479995
-0.0217281 -0.22959855 0.76050007
-0.014719924 -0.22645187 0.76115388
-0.0082933344 -0.22665757 0.76088893
-0.12183048 -0.21229105 0.76599997
-0.11506505 -0.21319973 0.76328593
-0.10494947 -0.2141189 0.76083344
-0.098679386 -0.21400635 0.76000005
-0.12491407 -0.20554328 0.76648569
-0.11644496 -0.2064939 0.76130021
-0.10758686 -0.2089465 0.76020002
0.0062247622 -0.20107433 0.76000011
-0.12297193 -0.19580555 0.76678258
-0.11790781 -0.19405544 0.76282358
0.005741247 -0.19404444 0.76076925
0.011460571 -0.19192152 0.76160002
-0.11399948 -0.18509921 0.76327282
-0.002013122 -0.18427494 0.76144451
0.0051591066 -0.18521073 0.76436734
0.011989999 -0.18711667 0.76300001
-0.11188018 -0.17518345 0.76580012
-0.10912817 -0.17400272 0.7617144
-0.011344443 -0.17065239 0.76033336
-0.0045579863 -0.17433161 0.76388639
0.0040515582 -0.17809071 0.76695442
-0.11102089 -0.16453296 0.76730782
-0.10663326 -0.16399996 0.76300007
-0.014242284 -0.16404298 0.76335001
-0.0072619612 -0.16748783 0.76717651
-0.1104457 -0.15872 0.76800001
-0.10373444 -0.15576613 0.76362962
-0.098712958 -0.1511842 0.76100004
-0.022736412 -0.15389027 0.76122737
-0.016605398 -0.15552002 0.76566672
-0.10077645 -0.14630787 0.76757145
-0.097333394 -0.14434819 0.76300007
-0.03112381 -0.14259049 0.76000005
-0.025277643 -0.14461984 0.7632609
-0.018111747 -0.14871854 0.76755559
-0.094138578 -0.13530517 0.7638334
-0.089028567 -0.1317333 0.76000011
-0.034285527 -0.1337104 0.7616666
-0.028149713 -0.13784268 0.7658
-0.09159746 -0.1273108 0.76533335
-0.087703429 -0.12464944 0.76230013
-0.04233513 -0.12480441 0.7630741
-0.037760772 -0.12655623 0.76604754
-0.083350286 -0.11501346 0.76420701
-0.078201495 -0.11154955 0.76128578
-0.052838098 -0.1107429 0.76000005
-0.044425923 -0.11468985 0.76430422
-0.03876571 -0.1192229 0.76800001
-0.08197891 -0.10745948 0.76757145
-0.076091848 -0.10391431 0.76334286
-0.063467152 -0.10087284 0.7601667
-0.053836301 -0.10461407 0.76323265
-0.047013264 -0.1073726 0.76621431
-0.072421558 -0.095936187 0.76527286
-0.064629935 -0.09512502 0.76249003
-0.057557624 -0.096222006 0.76600003
-0.071405403 -0.089439042 0.76766664
-0.065168738 -0.088623971 0.76682359
-0.058514282 -0.089965723 0.76800001
-0.021266671 -0.24664444 0.76999998
-0.017879788 -0.24567278 0.77155554
-0.13130684 -0.20493503 0.7731111
-0.12906666 -0.20386668 0.76999998
-0.1301371 -0.19924951 0.77200001
-0.12567809 -0.19360696 0.77171433
-0.12308677 -0.18537509 0.77733332
-0.1180637 -0.18444751 0.77237505
-0.12168967 -0.17803144 0.77842855
-0.11664681 -0.1747542 0.77452189
-0.00073333329 -0.1716 0.76999998
0.0048757303 -0.17299663 0.77319354
-0.11355047 -0.16555277 0.77120006
-0.0041720006 -0.16384518 0.77088577
0.0035104451 -0.1660597 0.7762903
-0.11165665 -0.1572838 0.77899998
-0.10755631 -0.1535932 0.77350003
-0.011955647 -0.15395974 0.77085716
-0.0054198131 -0.15515479 0.77472562
0.00074126985 -0.1578892 0.77833337
-0.10442705 -0.14471495 0.77396286
-0.02177397 -0.14067684 0.77066666
-0.015314127 -0.14471248 0.77302378
-0.0074563171 -0.14753406 0.7779333
-0.10235035 -0.13649635 0.77714288
-0.09825547 -0.13302292 0.773
-0.031089952 -0.13227175 0.77111107
-0.024627533 -0.13452694 0.77371424
-0.018333651 -0.13640267 0.77700007
-0.10065173 -0.1273603 0.77899998
-0.0954239 -0.12459248 0.77385306
-0.088963807 -0.1213143 0.77200001
-0.033046477 -0.12465317 0.77113342
-0.025327915 -0.12534404 0.77594858
-0.092275202 -0.11603701 0.77716678
-0.087995164 -0.11435027 0.77178574
-0.040822219 -0.1112222 0.76999998
-0.034465771 -0.11541627 0.77410007
-0.027295677 -0.11774471 0.77845454
-0.091254286 -0.10906 0.77899998
-0.085415833 -0.10510706 0.77289659
-0.079933338 -0.1004667 0.76999998
-0.051333334 -0.1004667 0.76999998
-0.043965824 -0.10406381 0.77161115
-0.036843874 -0.10604331 0.77686673
-0.082485475 -0.095396362 0.77500004
-0.077069879 -0.094230048 0.77136368
-0.053236768 -0.094229646 0.77140009
-0.0455878 -0.095859416 0.77571434
-0.03882635 -0.098178737 0.77899998
-0.081223808 -0.089122228 0.77766663
-0.074692152 -0.085365281 0.77511775
-0.065220967 -0.08363048 0.77173692
-0.055633523 -0.085061558 0.77493483
-0.049114097 -0.088583432 0.77899998
-0.071726941 -0.078294829 0.77871424
-0.064567693 -0.075304046 0.77699995
-0.057639197 -0.077593923 0.77823073
-0.12777145 -0.19165716 0.77999997
-0.13094443 -0.18556033 0.78566664
-0.12801726 -0.18447155 0.78262508
-0.12485863 -0.17508288 0.7843793
-0.11848573 -0.17122857 0.77999997
-0.12187907 -0.16867714 0.78833336
-0.11816924 -0.16766639 0.7874285
0.0072572427 -0.16282746 0.78221059
0.01124762 -0.16121273 0.78733331
-0.11523644 -0.15427548 0.78487879
-0.00074285717 -0.1522857 0.77999997
0.0051364149 -0.15462394 0.78387243
0.01125 -0.15524572 0.78750002
-0.11266441 -0.14542113 0.78672731
-0.10885144 -0.14494525 0.78149998
-0.012400635 -0.14163111 0.78133339
-0.0042327968 -0.1441479 0.78510249
0.0041731209 -0.14794734 0.78855538
0.01127143 -0.1495343 0.78899997
-0.11039 -0.13817474 0.78849995
-0.10647388 -0.13490471 0.78385705
-0.013718602 -0.1345365 0.78306675
-0.0071119219 -0.13620049 0.78772402
-0.10279558 -0.1253514 0.7842105
-0.098800004 -0.1210857 0.77999997
-0.020839525 -0.12329919 0.78149992
-0.015748406 -0.12585755 0.78552938
-0.0097685717 -0.1299971 0.78899997
-0.10118569 -0.11692382 0.78700006
-0.097164132 -0.11430555 0.78303587
-0.030457141 -0.1106857 0.77999997
-0.023873569 -0.11404112 0.78417075
-0.017862953 -0.11648659 0.7881
-0.094406001 -0.10567451 0.7858333
-0.088685401 -0.10280477 0.78033334
-0.032698218 -0.10386973 0.78269571
-0.026813954 -0.10689272 0.7865501
-0.091627009 -0.0969465 0.78800005
-0.087679222 -0.094395496 0.78461117
-0.042280007 -0.091854475 0.7816
-0.035381734 -0.095067911 0.78570735
-0.084254041 -0.085582435 0.78582144
-0.078261673 -0.082349762 0.78075004
-0.051257145 -0.08245714 0.77999997
-0.045156211 -0.084573269 0.7841087
-0.037855152 -0.085804678 0.78781813
-0.080812387 -0.075372145 0.78750002
-0.075343937 -0.074891016 0.78324318
-0.064836435 -0.07133691 0.78024995
-0.05358246 -0.074641645 0.78378946
-0.046868745 -0.077979572 0.78800005
-0.074044503 -0.066485986 0.78757137
-0.065029018 -0.06502001 0.78483665
-0.056140609 -0.066862926 0.78755558
-0.071385719 -0.059362859 0.78899997
-0.065522641 -0.059012167 0.78877777
-0.13401429 -0.18625715 0.79500002
-0.12783141 -0.17206416 0.79336357
-0.12490738 -0.16475919 0.79399997
-0.11833726 -0.16463397 0.79255557
-0.12324303 -0.15653358 0.79447067
-0.11978 -0.15744667 0.79100007
0.0097933328 -0.15142 0.79100001
0.0113 -0.15142 0.79100001
-0.12084 -0.14972 0.79799998
-0.1172336 -0.14447592 0.79472232
0.0059403609 -0.14326793 0.7927838
0.011333332 -0.14455462 0.79333335
-0.11354531 -0.13558362 0.79456526
-0.10882316 -0.13093872 0.79166669
-0.0030176626 -0.13367452 0.79300016
0.0038517003 -0.13628347 0.79721451
0.01138571 -0.1389057 0.79700011
-0.11155698 -0.12723987 0.79683346
-0.10755293 -0.12464637 0.79321063
-0.012363238 -0.12273467 0.79159999
-0.0056658839 -0.12526271 0.79522222
0.00076000002 -0.1292 0.79799998
-0.1045763 -0.11567201 0.7948572
-0.014363954 -0.11467842 0.79396975
-0.0080499034 -0.11691011 0.79746664
-0.10224708 -0.10696475 0.79655552
-0.097692668 -0.10236999 0.79269999
-0.023777911 -0.10347014 0.79229039
-0.017442856 -0.10557562 0.79640007
-0.095028073 -0.094519317 0.79338104
-0.031203618 -0.09300743 0.79140007
-0.025810551 -0.095390424 0.79543597
-0.018240001 -0.09956 0.79799998
-0.092794023 -0.085798785 0.79572225
-0.08824344 -0.083484322 0.79192317
-0.03339887 -0.084583424 0.79377788
-0.029200409 -0.086515509 0.79785711
-0.090402223 -0.078246675 0.79766673
-0.085345887 -0.074746355 0.79440016
-0.05047334 -0.07006 0.79100001
-0.044177968 -0.073878609 0.79356748
-0.036181804 -0.077757053 0.79594743
-0.082385398 -0.065792382 0.79653347
-0.077598348 -0.062989846 0.79306668
-0.053489655 -0.063334286 0.79214299
-0.046383906 -0.065232202 0.79677433
-0.073861368 -0.055384476 0.79482865
-0.064574398 -0.05399847 0.79305565
-0.055905387 -0.05622343 0.79613185
-0.049369052 -0.059242383 0.79750001
-0.072423495 -0.048872698 0.79766661
-0.065141976 -0.04681005 0.79707414
-0.05776 -0.049400002 0.79799998
-0.12364308 -0.15139082 0.80039996
-0.12499204 -0.14394662 0.80333328
-0.119619 -0.1417143 0.80000001
-0.12216906 -0.13789192 0.80550009
-0.11785609 -0.13481645 0.80309099
0.0073142862 -0.13314158 0.80190486
0.011485712 -0.13476254 0.80400008
-0.11380889 -0.12443704 0.80377775
-0.0010681904 -0.12199391 0.80159998
0.004806716 -0.12577093 0.80526322
0.010507303 -0.1263511 0.80733341
-0.1116234 -0.11565905 0.80527282
-0.10818526 -0.1135281 0.80183339
-0.01220476 -0.1106143 0.801
-0.004317367 -0.11420791 0.80358827
0.0012087075 -0.11677388 0.80742866
-0.11055493 -0.10696384 0.80800003
-0.10567062 -0.10430484 0.80333334
-0.012809026 -0.10433135 0.80373919
-0.0077292705 -0.10767186 0.8064
-0.10310993 -0.094991513 0.80491668
-0.098973885 -0.095270477 0.80028576
-0.021969337 -0.092609331 0.801
-0.016060241 -0.095519759 0.80562502
-0.10106552 -0.087835051 0.80760002
-0.097162552 -0.084308997 0.80400008
-0.024620222 -0.084863164 0.8035385
-0.018920764 -0.087835051 0.80760002
-0.093762659 -0.075570524 0.80434775
-0.089142852 -0.072380953 0.80000001
-0.040380951 -0.070857137 0.80000001
-0.034305241 -0.073640794 0.80199999
-0.02773802 -0.075741984 0.80541664
-0.091374531 -0.065836906 0.80625004
-0.086934514 -0.064358391 0.80230772
-0.041755408 -0.063731201 0.80058831
-0.035294238 -0.065761484 0.80575007
-0.029937141 -0.069853343 0.80600011
-0.083417207 -0.055563569 0.80474997
-0.07874994 -0.054349933 0.8005715
-0.052275766 -0.052783702 0.80066669
-0.045629624 -0.055103708 0.80426323
-0.038476191 -0.059253331 0.80800003
-0.080666661 -0.048398733 0.80666667
-0.074773408 -0.045001335 0.80273336
-0.064028569 -0.042477403 0.8003636
-0.054961808 -0.045077264 0.80302566
-0.048582647 -0.04789947 0.806889
-0.071575753 -0.035958789 0.80654544
-0.06485723 -0.03480988 0.80509084
-0.057647765 -0.036952674 0.80707687
-0.066179052 -0.028472381 0.80800003
-0.12562025 -0.13459371 0.81489283
-0.11925953 -0.13160902 0.81050009
-0.12415549 -0.12550412 0.81590325
-0.11834752 -0.12441661 0.81142867
0.006963572 -0.12144974 0.81225002
0.010061583 -0.12151174 0.81266665
-0.1216062 -0.11848715 0.81850016
-0.11648993 -0.11522581 0.81566685
-0.00077238097 -0.11122195 0.81100005
0.0051925257 -0.11471621 0.81372714
0.010086347 -0.11482635 0.81466675
-0.11366463 -0.10531694 0.81594759
-0.1087714 -0.1010571 0.81000012
-0.01002857 -0.1010571 0.81000012
-0.0039152387 -0.10386688 0.81299996
0.0041281488 -0.10685733 0.8181113
0.010131747 -0.10833047 0.81833345
-0.11133572 -0.096536346 0.81750011
-0.10784028 -0.09380687 0.81226677
-0.011691147 -0.093593441 0.81217659
-0.0055478169 -0.095645361 0.81651735
0.00078000012 -0.097499996 0.81900012
-0.10471801 -0.085164391 0.81391311
-0.099514291 -0.081 0.81000012
-0.020828569 -0.081771433 0.81000012
-0.014092337 -0.084684283 0.8147074
-0.0072730165 -0.088587634 0.81833345
-0.10194892 -0.076097354 0.81535727
-0.097835243 -0.073888898 0.81100005
-0.023209717 -0.074286588 0.81356001
-0.017152831 -0.077721231 0.8165884
-0.10049715 -0.068555243 0.81800008
-0.095879368 -0.06503167 0.81458348
-0.031497978 -0.062415596 0.81162506
-0.025367497 -0.065151967 0.81506252
-0.092751123 -0.055771824 0.81650013
-0.087329142 -0.052868318 0.8124001
-0.041887861 -0.05192643 0.81075001
-0.035220973 -0.055291623 0.81502378
-0.027600953 -0.058230162 0.81766677
-0.091260001 -0.049139999 0.81900012
-0.08500918 -0.045381237 0.8145715
-0.078623496 -0.042017147 0.81200004
-0.050835051 -0.042181339 0.81120002
-0.044394042 -0.044492725 0.81322587
-0.038206983 -0.045982227 0.81653345
-0.082244858 -0.035772581 0.81752652
-0.075946808 -0.034301084 0.8136667
-0.060942858 -0.03008572 0.81000012
-0.053829387 -0.033967856 0.81269437
-0.046454631 -0.036371581 0.81680024
-0.073506519 -0.025513479 0.81569248
-0.064852469 -0.024291815 0.81309378
-0.056188229 -0.025303664 0.81569713
-0.13278574 -0.12021431 0.82499999
-0.1278238 -0.12123374 0.8233999
-0.13452175 -0.1145295 0.82700002
-0.12537792 -0.11506493 0.82437497
-0.11972857 -0.1119019 0.82166672
-0.13173811 -0.1086905 0.82499999
-0.12144092 -0.10803302 0.82800007
-0.11784242 -0.10380813 0.82530761
0.0046203467 -0.10228736 0.82100004
-0.1149009 -0.094952539 0.82542115
-0.0018782858 -0.092688568 0.82200003
0.0044018277 -0.095042706 0.8255406
-0.1122313 -0.085824631 0.82571429
-0.10861456 -0.083278231 0.82385713
-0.0044296915 -0.084690817 0.82476467
0.0049327374 -0.085722998 0.8286252
0.010253906 -0.084399804 0.82820016
-0.10605834 -0.074897736 0.82562512
-0.01362161 -0.073810555 0.82343745
-0.0066273953 -0.07691513 0.82758838
0.0081352387 -0.077155881 0.82666677
0.01023286 -0.07714048 0.82650006
-0.10283395 -0.064919889 0.82499999
-0.099382542 -0.061819371 0.82166672
-0.021558234 -0.063557692 0.82100004
-0.016109737 -0.065645188 0.82550013
-0.10075524 -0.056920193 0.8278001
-0.097380884 -0.054631278 0.82407695
-0.031119814 -0.052074861 0.82099998
-0.024511304 -0.054305844 0.82326674
-0.018752955 -0.056576192 0.82740003
-0.092992321 -0.045942541 0.82513332
-0.088570483 -0.042166665 0.82299995
-0.033528961 -0.044513073 0.8239333
-0.026784763 -0.047564644 0.82725
-0.090795241 -0.03710762 0.82900017
-0.086595669 -0.034303501 0.82488894
-0.04306832 -0.033011582 0.82226318
-0.036862858 -0.035918731 0.82600003
-0.1400829 -0.1115914 0.83099997
-0.13177285 -0.11357 0.83099997
-0.12804572 -0.11060283 0.8325001
-0.12521231 -0.10541548 0.83523989
-0.13077749 -0.092156827 0.83899993
-0.12463857 -0.095479898 0.83620006
-0.11907355 -0.094253443 0.83166665
-0.11659312 -0.084290572 0.83457899
-0.0007933334 -0.080126673 0.83300012
0.003369048 -0.080846429 0.83225012
-0.11291686 -0.075803719 0.83609998
-0.10826574 -0.072440572 0.83220005
-0.0035654763 -0.073689684 0.83275002
0.0043972838 -0.075202942 0.83648151
0.010371113 -0.072597779 0.83766669
-0.11141075 -0.066708162 0.83814281
-0.10748096 -0.064554289 0.83242863
-0.011737334 -0.062973335 0.83280003
-0.0053051426 -0.065882482 0.83620006
0.00079904759 -0.066320963 0.83899999
0.01036286 -0.069351427 0.83700001
-0.10477237 -0.055431902 0.8355
-0.014522288 -0.055092886 0.83513325
-0.0082568256 -0.059395876 0.83899999
-0.10176285 -0.047288027 0.83757144
-0.09697748 -0.043795064 0.83336371
-0.03086571 -0.040362861 0.83099997
-0.024427034 -0.043603882 0.83369225
-0.018216548 -0.046784766 0.83624995
-0.12510698 -0.092527948 0.84116656
-0.1305552 -0.088905722 0.84100002
-0.12359788 -0.087214753 0.84350002
-0.1199095 -0.081280947 0.84500003
-0.1203352 -0.078339048 0.84799999
-0.11663938 -0.073621377 0.84333342
0.003684381 -0.071925521 0.84099996
-0.11350894 -0.064601906 0.84309101
-0.0025651429 -0.061745144 0.84200013
0.0040707616 -0.066111907 0.84390002
-0.11202436 -0.055248044 0.84622222
-0.10842129 -0.05336244 0.8418889
-0.011105987 -0.052554425 0.84157145
-0.0052457144 -0.055224892 0.8455171
0.0020190477 -0.058552384 0.84799999
-0.1106438 -0.04926477 0.84799999
-0.10549525 -0.045286458 0.84411108
-0.013663005 -0.044400297 0.84415382
-0.0084721437 -0.048009768 0.84725004
-0.13131851 -0.083659679 0.85288888
-0.12661092 -0.083590299 0.85218197
-0.1315013 -0.077116512 0.85233337
-0.12551156 -0.074829578 0.85490924
-0.11937334 -0.072272383 0.85266668
-0.1227992 -0.06670367 0.85714281
-0.1179119 -0.065051906 0.85383338
0.0072961044 -0.062707715 0.85109103
0.01054857 -0.060857151 0.85200012
-0.11574525 -0.054820802 0.85483336
-0.0021587303 -0.052079368 0.84999996
0.0052180355 -0.054658514 0.85106248
0.010533715 -0.055909716 0.85080004
-0.1248171 -0.0629678 0.86293739
