# .PCD v0.7 - Point Cloud Data file format
VERSION 0.7
FIELDS x y z
SIZE 4 4 4
TYPE F F F
COUNT 1 1 1
WIDTH 182
HEIGHT 1
VIEWPOINT 0 0 0 1 0 0 0
POINTS 182
DATA ascii
-0.4497 -0.61530381 1.499
-0.45826569 -0.56962001 1.499
-0.4497 -0.56962001 1.499
-0.44749719 -0.62104571 1.506
-0.44749719 -0.61817712 1.506
-0.46040571 -0.60383427 1.506
-0.45753711 -0.60383427 1.506
-0.46136189 -0.58566672 1.506
-0.46040571 -0.57658291 1.506
-0.45507833 -0.57514858 1.5059999
-0.44032571 -0.57514858 1.506
-0.43745711 -0.57514858 1.506
-0.45395142 -0.56869435 1.506
-0.44474778 -0.62255222 1.5178334
-0.43877 -0.62785 1.5155001
-0.45216 -0.61488003 1.512
-0.44482866 -0.61485803 1.5155001
-0.43641114 -0.61386889 1.5190001
-0.46324402 -0.60448933 1.5134
-0.45545292 -0.60563248 1.5143335
-0.44510099 -0.6051572 1.5159999
-0.43641111 -0.60486746 1.5190001
-0.46331 -0.59465003 1.5155001
-0.45539114 -0.5951789 1.5131668
-0.44495997 -0.59472001 1.512
-0.43570605 -0.59433538 1.5169001
-0.46294889 -0.58506006 1.5143334
-0.4544861 -0.58541542 1.5119998
-0.44496003 -0.58464003 1.512
-0.43590888 -0.58484226 1.5152664
-0.42965999 -0.58011341 1.5190001
-0.45071998 -0.57455999 1.512
-0.44552061 -0.5734455 1.5139091
-0.43618488 -0.57445389 1.5151818
-0.42965999 -0.57432669 1.5190001
-0.45072001 -0.56879997 1.512
-0.44259429 -0.56609714 1.518
-0.43592894 -0.56516439 1.5190001
-0.42965999 -0.56275332 1.5190001
-0.4614867 -0.55262673 1.5190001
-0.45550668 -0.55541819 1.5183636
-0.44516006 -0.55490005 1.5190002
-0.43641111 -0.55600232 1.5190001
-0.42965999 -0.55985999 1.5190001
-0.46486226 -0.54442888 1.5190001
-0.45522359 -0.5438273 1.5139091
-0.44522783 -0.54497439 1.5178334
-0.43834001 -0.54828668 1.5190001
-0.46405855 -0.53542739 1.5190001
-0.4554989 -0.53483641 1.5168463
-0.44531158 -0.53470176 1.5171336
-0.46293336 -0.52803332 1.5190001
-0.45533833 -0.52550167 1.5190001
-0.44505724 -0.52453274 1.5172501
-0.43834001 -0.52224672 1.5190001
-0.44701999 -0.51935339 1.5190001
-0.43834001 -0.51935339 1.5190001
-0.43368092 -0.63294774 1.525
-0.42471772 -0.63469058 1.5249999
-0.44200793 -0.62646031 1.525
-0.43592176 -0.62390137 1.5249999
-0.42554769 -0.62500793 1.525
-0.44297621 -0.61290479 1.525
-0.4328095 -0.61363095 1.525
-0.42554766 -0.61435717 1.5249999
-0.41973811 -0.61435717 1.525
-0.43251902 -0.60506195 1.525
-0.42729053 -0.60622382 1.525
-0.43135709 -0.59547621 1.525
-0.4284524 -0.59547615 1.525
-0.43135709 -0.58676189 1.525
-0.4284524 -0.58821428 1.525
-0.45314288 -0.5707857 1.525
-0.44878581 -0.5707857 1.525
-0.4335357 -0.57296431 1.525
-0.45362702 -0.56497622 1.525
-0.44442865 -0.56497622 1.525
-0.43280947 -0.56788099 1.525
-0.42729053 -0.56439525 1.525
-0.47347617 -0.55045241 1.525
-0.46548814 -0.55335712 1.525
-0.43329364 -0.5543254 1.5249999
-0.47347617 -0.54464287 1.525
-0.44007149 -0.54464287 1.525
-0.43426189 -0.54754758 1.525
-0.47460583 -0.53528309 1.5249999
-0.4691191 -0.53302383 1.525
-0.44065243 -0.53476667 1.525
-0.43716669 -0.53738099 1.525
-0.47202381 -0.52430958 1.525
-0.46515802 -0.52404547 1.5249997
-0.44297624 -0.52334124 1.525
-0.4364405 -0.52503574 1.525
-0.42099491 -0.64149588 1.5366668
-0.4177286 -0.64198291 1.539
-0.43260765 -0.63249713 1.5319999
-0.42165104 -0.63425541 1.535
-0.41772857 -0.63465434 1.539
-0.43187815 -0.62447238 1.5319998
-0.42348862 -0.62520188 1.5319998
-0.41774616 -0.62505877 1.5360001
-0.37864283 -0.62390572 1.539
-0.42206791 -0.61337185 1.5350001
-0.41740975 -0.61659569 1.5378333
-0.42324772 -0.60519457 1.533909
-0.41699576 -0.60460711 1.539
-0.42458287 -0.59529144 1.5319997
-0.41562095 -0.59466952 1.5333998
-0.4099924 -0.59383237 1.5319999
-0.43041909 -0.58507806 1.5319999
-0.42449901 -0.58493704 1.5357691
-0.41737586 -0.58619368 1.5333999
-0.45230475 -0.57048762 1.5319999
-0.43107462 -0.57720155 1.5343333
-0.42640468 -0.57548743 1.5346248
-0.45230475 -0.56756949 1.5319999
-0.43041909 -0.56173331 1.5319999
-0.42782608 -0.56246728 1.5366668
-0.47419047 -0.55589718 1.5319999
-0.43236446 -0.55297911 1.5319999
-0.4294543 -0.55550575 1.539
-0.48002669 -0.54568386 1.5319999
-0.43511465 -0.54486138 1.5345452
-0.42847717 -0.54182571 1.539
-0.48002669 -0.53255242 1.5319999
-0.4771086 -0.53547049 1.5319999
-0.43572104 -0.53568846 1.5335554
-0.42652291 -0.53498566 1.539
-0.4177286 -0.53205419 1.539
-0.41668391 -0.64343047 1.546
-0.41570231 -0.63459623 1.546
-0.41668391 -0.62723434 1.546
-0.3842915 -0.62870669 1.546
-0.37545717 -0.62797052 1.546
-0.41439348 -0.61463726 1.546
-0.40784961 -0.61103809 1.546
-0.41373909 -0.60613018 1.546
-0.40784961 -0.60809338 1.546
-0.4262543 -0.56318575 1.546
-0.4314076 -0.55214292 1.546
-0.42588621 -0.55545574 1.546
-0.41815627 -0.55655998 1.546
-0.43238917 -0.54625338 1.546
-0.42502734 -0.54330862 1.546
-0.4141334 -0.6448648 1.553
-0.40542334 -0.64535779 1.553
-0.39786378 -0.64338577 1.553
-0.41383752 -0.63451147 1.553
-0.40614647 -0.63391984 1.553
-0.39786381 -0.63155341 1.553
-0.41413337 -0.62637669 1.553
-0.40969619 -0.62267911 1.553
-0.41413334 -0.61528385 1.553
-0.40821716 -0.61676288 1.553
-0.42596573 -0.56351721 1.553
-0.4304029 -0.5516848 1.553
-0.42389506 -0.55286807 1.553
-0.41857049 -0.55316389 1.553
-0.42300767 -0.54872668 1.553
-0.40560001 -0.65222859 1.5599999
-0.39538288 -0.65318471 1.5646666
-0.38851652 -0.6531654 1.567
-0.40659055 -0.64430475 1.5599999
-0.39532405 -0.64489651 1.5631818
-0.38823223 -0.64534819 1.5670002
-0.41154289 -0.63142848 1.5599999
-0.40644905 -0.63397557 1.5600001
-0.39467078 -0.63391948 1.5610766
-0.38518244 -0.63344473 1.5649999
-0.37737143 -0.63737148 1.5599999
-0.4130286 -0.62845713 1.5599999
-0.40560004 -0.62548572 1.5599999
-0.39817142 -0.62548572 1.5599999
-0.40560001 -0.6195429 1.5599999
-0.38675433 -0.65508384 1.574
-0.38525531 -0.64758867 1.574
-0.38416815 -0.6619243 1.585
-0.37704286 -0.66247374 1.5874
-0.38377652 -0.65553564 1.5823332
-0.37632918 -0.65554571 1.5881999
-0.38245147 -0.64896291 1.581
-0.37984669 -0.64921999 1.589
