# .PCD v0.7 - Point Cloud Data file format
VERSION 0.7
FIELDS x y z
SIZE 4 4 4
TYPE F F F
COUNT 1 1 1
WIDTH 477
HEIGHT 1
VIEWPOINT 0 0 0 1 0 0 0
POINTS 477
DATA ascii
0.14590208 -0.19344337 0.63634157
0.15406774 -0.19140771 0.63466668
0.1646938 -0.19319531 0.63630772
0.17537022 -0.19249877 0.63632268
0.18119296 -0.1918295 0.63460004
0.14716089 -0.18584684 0.63702387
0.15487184 -0.18495286 0.6338985
0.16491866 -0.18439001 0.63320571
0.17554595 -0.18544438 0.63706565
0.18067813 -0.18796062 0.63733333
0.1496114 -0.1798972 0.63599998
0.15564537 -0.17832996 0.6357308
0.16495541 -0.17792934 0.63602865
0.17466785 -0.1784516 0.63877779
0.14347705 -0.2015221 0.64533335
0.13925578 -0.19286478 0.64171427
0.1415567 -0.19538489 0.64150006
0.15723987 -0.19570109 0.64242852
0.16314924 -0.19728254 0.63999999
0.13903511 -0.18563688 0.64271432
0.14324461 -0.18360569 0.6412918
0.15078761 -0.1800905 0.64099997
0.1749333 -0.18285716 0.63999999
0.13872051 -0.1798462 0.64450002
0.14715435 -0.17629789 0.64637226
0.1544894 -0.17457175 0.64395338
0.16480255 -0.17360274 0.64479637
0.17114206 -0.17459002 0.64247054
0.14722674 -0.16509455 0.64682502
0.15449628 -0.16474491 0.64386189
0.16491036 -0.16479352 0.64370525
0.17318831 -0.16406859 0.64397472
0.14843956 -0.15562798 0.64695829
0.15499391 -0.15499401 0.64398628
0.16479066 -0.15517668 0.64267659
0.17549327 -0.15466432 0.64385545
0.18213877 -0.15323707 0.64416671
0.14994001 -0.14500286 0.64788884
0.15487653 -0.14492545 0.64591056
0.16480647 -0.14530201 0.64355147
0.17519617 -0.14484139 0.64419162
0.18416572 -0.14459439 0.64607513
0.15655266 -0.13725501 0.64747059
0.16527931 -0.13518493 0.64658201
0.17502071 -0.1350546 0.64581949
0.18478839 -0.13467468 0.64698446
0.1906971 -0.1314514 0.648
0.16808008 -0.12744845 0.64792305
0.17437926 -0.12702724 0.64772987
0.18308569 -0.12816004 0.64799994
0.13924794 -0.18087906 0.65566677
0.14183398 -0.18023527 0.65033334
0.13812269 -0.17523281 0.65646422
0.14275949 -0.1745684 0.65168887
0.13787721 -0.16469277 0.65631032
0.14237066 -0.16485536 0.65210003
0.13771066 -0.15534827 0.6566667
0.14372997 -0.15485597 0.65231687
0.1387593 -0.14671633 0.65714294
0.1449413 -0.14513019 0.65344012
0.14662844 -0.13610677 0.65517658
0.15364346 -0.13346076 0.65139997
0.16172616 -0.13139285 0.65000004
0.19066665 -0.130619 0.64999998
0.14956175 -0.12700613 0.65785724
0.15528055 -0.12525681 0.65435052
0.16423714 -0.12417601 0.65100008
0.17513667 -0.12255867 0.65027577
0.18529098 -0.12379821 0.6511668
0.19363298 -0.12375702 0.65405124
0.15714069 -0.11769808 0.65736365
0.16535047 -0.11517627 0.654971
0.17505649 -0.11516919 0.65360558
0.18477775 -0.11475048 0.65474194
0.1946865 -0.11540724 0.65677214
0.20205523 -0.11826096 0.65800005
0.16749907 -0.10930859 0.65800005
0.17593184 -0.10811311 0.65739995
0.18473244 -0.10796203 0.65751863
0.1380236 -0.18204024 0.66025001
0.14017139 -0.1829143 0.66000003
0.13385503 -0.17344745 0.66410822
0.13377309 -0.16533647 0.66465867
0.13387574 -0.15484627 0.66484463
0.13582173 -0.14488685 0.6647886
0.14027759 -0.1409062 0.66050005
0.13755642 -0.1354028 0.66577512
0.14285168 -0.13368037 0.66094291
0.13917241 -0.12808093 0.66814291
0.14465079 -0.12485707 0.66368914
0.15077695 -0.12109922 0.6602
0.14707036 -0.11643909 0.66639495
0.15405485 -0.11407485 0.66203439
0.1609143 -0.11188575 0.66000003
0.19862854 -0.1112572 0.66000003
0.20439593 -0.11313173 0.66117942
0.21591215 -0.11225477 0.66875011
0.2210886 -0.1102257 0.66900003
0.1497286 -0.10831425 0.66900003
0.15618621 -0.10603748 0.66509444
0.16470186 -0.10473821 0.66174263
0.1745736 -0.10331408 0.66057134
0.18513657 -0.10299762 0.66092688
0.19490674 -0.10513246 0.66165143
0.20498009 -0.10534883 0.66601896
0.21489023 -0.10624722 0.66867578
0.2210886 -0.10640286 0.66900003
0.15878788 -0.098009296 0.66825014
0.16524956 -0.09645047 0.66621602
0.17512406 -0.094932996 0.6651175
0.18509239 -0.094951928 0.66501737
0.19426666 -0.096402124 0.66680974
0.2022123 -0.098241054 0.66810006
0.17648859 -0.089837141 0.66900003
0.1836246 -0.089454852 0.66900009
0.12967834 -0.17247927 0.67075002
0.13090715 -0.1730538 0.67050004
0.12825705 -0.16405916 0.67450017
0.1309211 -0.16413088 0.67057145
0.12827016 -0.15524474 0.67513877
0.1308095 -0.15505715 0.67000002
0.12922664 -0.1446595 0.67508698
0.13177928 -0.14454824 0.67035294
0.12958382 -0.13717487 0.67560005
0.13292266 -0.13445821 0.67232502
0.13574781 -0.12479716 0.67347544
0.13767363 -0.11629418 0.67732143
0.14312027 -0.11397828 0.67244434
0.2159358 -0.11227757 0.67031252
0.220781 -0.1123048 0.67000002
0.1390333 -0.1092867 0.67900002
0.14564222 -0.10549522 0.67467743
0.15294318 -0.1030117 0.67096543
0.20811021 -0.1009102 0.67000002
0.2156105 -0.10289676 0.67108703
0.22328137 -0.10238898 0.67758328
0.14838214 -0.097010359 0.67723531
0.15469022 -0.094764702 0.67417455
0.16373287 -0.091637135 0.67091662
0.19710246 -0.092231624 0.67019999
0.20528826 -0.094100609 0.6712448
0.21444465 -0.095444903 0.67560464
0.2205133 -0.098293334 0.67900002
0.15770754 -0.086864248 0.67790914
0.1649152 -0.085096546 0.67448568
0.17474665 -0.084799491 0.67255223
0.18503568 -0.084336884 0.67228335
0.19477952 -0.084949635 0.67332244
0.20446222 -0.08617194 0.67627513
0.21192504 -0.088555507 0.67871422
0.16603896 -0.079269625 0.67889994
0.17574047 -0.077686727 0.6773572
0.18476255 -0.076846316 0.67713904
0.1943596 -0.078018643 0.67757142
0.2011133 -0.079540007 0.67900002
0.12479955 -0.16055 0.6825
0.12523778 -0.15373346 0.68254167
0.1258162 -0.14503112 0.68415385
0.12782826 -0.13541874 0.68432152
0.13029903 -0.1315943 0.68066669
0.12899584 -0.12580977 0.68625003
0.13127555 -0.12428528 0.68190479
0.12901936 -0.11853936 0.68766665
0.13364515 -0.11466615 0.68402046
0.13701785 -0.10551514 0.68527269
0.14202093 -0.10278318 0.68129414
0.22599255 -0.10106555 0.68316668
0.2309629 -0.1014143 0.68699998
0.13882878 -0.097309709 0.68760002
0.14398761 -0.094625525 0.68326312
0.15081218 -0.090643808 0.68080002
0.21796706 -0.091428295 0.68085712
0.2249603 -0.095590934 0.68371433
0.2312571 -0.098365717 0.68400002
0.14675532 -0.086158849 0.68647379
0.15392795 -0.084192723 0.68252838
0.20710853 -0.082156539 0.68078566
0.21523218 -0.084176309 0.68382621
0.22156681 -0.087445989 0.68742859
0.1498314 -0.07916858 0.68699998
0.15657832 -0.077246927 0.6861819
0.16461466 -0.074188329 0.68406349
0.17434083 -0.073306948 0.68182057
0.18522638 -0.072205685 0.6810801
0.19534108 -0.073299885 0.68178385
0.20503022 -0.075369768 0.68401951
0.21294482 -0.076610044 0.68755001
0.16600513 -0.068076342 0.68805563
0.17547847 -0.065792076 0.68594724
0.18481399 -0.065561637 0.68553591
0.19420782 -0.066855043 0.68624991
0.20210177 -0.068202063 0.6875
0.1799286 -0.05954 0.68699998
0.1812371 -0.05954 0.68699998
0.12358952 -0.15412554 0.69100004
0.12583698 -0.13419832 0.69300002
0.12702791 -0.12463979 0.69280958
0.12907861 -0.11562784 0.69607151
0.13075131 -0.11199979 0.69222224
0.12937607 -0.10744364 0.69783336
0.13257185 -0.10449043 0.6933825
0.2313143 -0.1031714 0.69000012
0.13588701 -0.094924457 0.69327289
0.14061303 -0.090597779 0.69099998
0.22748256 -0.091035552 0.69099998
0.23406033 -0.092072181 0.69621438
0.13759692 -0.085913628 0.69634491
0.14297441 -0.083644882 0.69305426
0.22641459 -0.084293805 0.69340003
0.23237345 -0.086271897 0.69612515
0.13893519 -0.079106674 0.69800001
0.14568865 -0.075812384 0.69515532
0.15407358 -0.073051281 0.69136852
0.20897144 -0.070314303 0.69000012
0.21634422 -0.073555745 0.69100016
0.22362241 -0.075552963 0.69424242
0.14852694 -0.068204999 0.69700003
0.15543693 -0.065531701 0.69511676
0.16472042 -0.063202463 0.69254178
0.17191775 -0.062325213 0.69018185
0.1899143 -0.061771434 0.69000012
0.1964417 -0.062439114 0.6901179
0.20546474 -0.064137869 0.69184798
0.2140014 -0.06642887 0.69493097
0.22208624 -0.068622969 0.69655561
0.15821335 -0.059163809 0.69800001
0.16659023 -0.056604821 0.69653332
0.17501885 -0.055565514 0.69416147
0.18513805 -0.055346541 0.69393092
0.19496906 -0.055683382 0.69444853
0.20402534 -0.056665055 0.69623089
0.17823753 -0.049576949 0.69779998
0.18493697 -0.048881069 0.69747072
0.19283687 -0.049467076 0.69785708
0.1220267 -0.14012951 0.70400012
0.12316819 -0.13453285 0.70191669
0.12474039 -0.12461588 0.70371878
0.12551251 -0.11484005 0.70284623
0.12644759 -0.10545927 0.7044763
0.13037974 -0.10170262 0.70024997
0.1288593 -0.095760964 0.705625
0.13209516 -0.09451241 0.70269233
0.23600574 -0.09658429 0.70299995
0.1333337 -0.084903635 0.70445019
0.13702361 -0.075507775 0.70464295
0.14224204 -0.071987554 0.70119995
0.22810252 -0.07632985 0.70099998
0.23187287 -0.074868105 0.70569992
0.1391497 -0.067755051 0.70719999
0.14467791 -0.064807311 0.70421821
0.1518621 -0.061785914 0.70059997
0.21694872 -0.063011795 0.70138896
0.2231358 -0.06368456 0.70468426
0.14687374 -0.057147648 0.70659268
0.15464984 -0.054900263 0.70408213
0.16334555 -0.053344339 0.70202643
0.17052542 -0.050912704 0.70033336
0.20571882 -0.051968426 0.70140004
0.21408591 -0.055602062 0.70304883
0.22363833 -0.059063815 0.70674992
0.15759033 -0.046753246 0.70757151
0.16531286 -0.045148414 0.70501804
0.17473182 -0.045187429 0.70163161
0.18479493 -0.04380881 0.70157123
0.19510472 -0.044892501 0.70196009
0.20499611 -0.045293998 0.70561373
0.21190031 -0.047079157 0.70733333
0.16814536 -0.038413219 0.70762503
0.17517333 -0.037321005 0.70683348
0.18492329 -0.036499389 0.70607144
0.19450399 -0.037375402 0.70734483
0.20206098 -0.03933334 0.708
0.12182986 -0.12296367 0.71400005
0.12210661 -0.11815742 0.71549994
0.12389397 -0.10364271 0.71283334
0.12699234 -0.094919167 0.71404165
0.12843227 -0.08533711 0.71386957
0.13076083 -0.082739532 0.71016663
0.12949452 -0.078512147 0.71375
0.1324884 -0.074467912 0.71241373
0.13580211 -0.065108016 0.71349013
0.14074621 -0.060899999 0.7105
0.22868092 -0.064232923 0.71100008
0.2320891 -0.066274695 0.71281248
0.13784556 -0.055667695 0.7164073
0.14366259 -0.053834815 0.7115556
0.1507905 -0.050714292 0.70999998
0.21845549 -0.051818337 0.71125007
0.22514613 -0.054562069 0.71295136
0.23076481 -0.052726671 0.71899998
0.1390067 -0.049987622 0.71899998
0.14587761 -0.046291731 0.71578252
0.15373021 -0.043817915 0.71219558
0.1616095 -0.041247621 0.70999998
0.20826671 -0.041247621 0.70999998
0.21583411 -0.044064313 0.71317649
0.2235018 -0.046800666 0.71685183
0.14950638 -0.038574923 0.71900004
0.15601607 -0.036126111 0.71652633
0.16461378 -0.034763083 0.71308321
0.17475918 -0.032081109 0.71068019
0.18430716 -0.031379886 0.71050012
0.19512349 -0.032422896 0.710926
0.20531975 -0.034899548 0.71270221
0.21367601 -0.036097478 0.71626914
0.1663363 -0.027266329 0.71707135
0.17498358 -0.025271233 0.71524078
0.18506174 -0.025101433 0.71486264
0.19482882 -0.025378857 0.716111
0.20364942 -0.027006231 0.71795821
0.2102219 -0.028760001 0.71899998
0.17529906 -0.0198581 0.71899992
0.18625526 -0.0198581 0.71899992
0.19287463 -0.0198581 0.71900004
0.1189581 -0.1203333 0.72200012
0.12016664 -0.12085235 0.72100008
0.1189581 -0.1189581 0.72200012
0.1203333 -0.1182705 0.72200012
0.1196171 -0.1030229 0.72600001
0.12243624 -0.10397635 0.72308004
0.1236518 -0.095003784 0.72284365
0.12541464 -0.084794864 0.7263636
0.12650712 -0.075059555 0.72621572
0.13094544 -0.071829766 0.72175008
0.12741715 -0.065829486 0.72759992
0.13131267 -0.064481623 0.7234
0.1298314 -0.058320004 0.72899997
0.13374373 -0.054628175 0.72420508
0.2297143 -0.050057139 0.72000003
0.23241526 -0.050883807 0.72200012
0.13676256 -0.045501858 0.72510523
0.14294158 -0.042629115 0.72142863
0.22677201 -0.042916141 0.722579
0.23158808 -0.045786832 0.72300005
0.13928214 -0.035903573 0.72850001
0.14487751 -0.035127509 0.72485453
0.15317483 -0.032659553 0.72157902
0.21688287 -0.032856189 0.72223079
0.22342999 -0.035554249 0.726125
0.14613548 -0.027619762 0.72808331
0.15500054 -0.025078356 0.72493964
0.16388625 -0.022974985 0.72214711
0.19885716 -0.02125714 0.72000003
0.20634952 -0.023244184 0.7206524
0.2147852 -0.024894334 0.72480488
0.22209547 -0.028802624 0.72874999
0.15716553 -0.01734102 0.72835714
0.16557054 -0.015201697 0.72643661
0.17473857 -0.014548304 0.72262257
0.18487848 -0.01472127 0.72244412
0.19509146 -0.014748254 0.72303921
0.20450985 -0.016019652 0.72551221
0.21248907 -0.016993808 0.72833329
0.16824858 -0.0085628582 0.72899991
0.17526264 -0.0066058822 0.72805882
0.18461515 -0.0067586866 0.72751731
0.19466458 -0.008067322 0.72868747
0.20064861 -0.0090257144 0.72899997
0.12265732 -0.091678292 0.73260003
0.12249459 -0.084946468 0.7331112
0.12313267 -0.074533977 0.736
0.12685937 -0.062072277 0.73233342
0.12803367 -0.055794381 0.73572737
0.13073809 -0.053071164 0.73185718
0.12981716 -0.047014475 0.73680001
0.13249695 -0.044387851 0.73332006
0.13559273 -0.035305876 0.73495734
0.22809367 -0.034414027 0.73200011
0.23313755 -0.034839269 0.73630786
0.13851303 -0.026781386 0.73827273
0.14394949 -0.023531936 0.73434895
0.15107331 -0.02018952 0.73100001
0.2193 -0.02088571 0.73100001
0.22545776 -0.02462193 0.73441029
0.23094587 -0.025639167 0.737625
0.14698808 -0.015775029 0.73628122
0.15422468 -0.013630639 0.73275626
0.16197792 -0.011002668 0.73120004
0.20717333 -0.011066669 0.73133343
0.21570006 -0.014010001 0.7329616
0.22350261 -0.016452963 0.73694444
0.14920759 -0.0091495244 0.73900002
0.15641265 -0.0059807794 0.73787886
0.1646096 -0.0046750032 0.73350942
0.17416525 -0.0022288573 0.73150003
0.18501133 -0.0018567193 0.73122227
0.19488721 -0.0033590759 0.73144144
0.20510492 -0.0045991768 0.73340911
0.21261704 -0.0055760229 0.73764712
0.16615453 0.0022998268 0.73727268
0.1753812 0.0043057995 0.7355454
0.18473436 0.0049083368 0.73514271
0.19475551 0.0049448204 0.73635411
0.2033954 0.0028120475 0.73745
0.21184669 0.00070380961 0.73900002
0.17759459 0.011495553 0.73899996
0.18489078 0.011894376 0.73900014
0.19254218 0.011160405 0.73899996
0.1219238 -0.074704759 0.74000001
0.12597376 -0.052963808 0.7426666
0.12797987 -0.045289975 0.74361902
0.130381 -0.041580953 0.74000001
0.12903063 -0.037196331 0.745
0.13173531 -0.033351488 0.74318743
0.13500306 -0.02471233 0.74372214
0.1402476 -0.020438099 0.74000001
0.13795234 -0.015849207 0.74538094
0.1426551 -0.013626737 0.74207133
0.219181 -0.01057143 0.74000001
0.22650328 -0.012965295 0.74163985
0.23087235 -0.015530159 0.74133343
0.14516322 -0.0051360196 0.74530005
0.15260443 -0.0031398274 0.74027258
0.21741541 -0.0045742858 0.74257892
0.22370379 -0.006953191 0.74545002
0.14737979 0.0021351702 0.74707133
0.15535989 0.0046386272 0.74359632
0.16445896 0.0068138861 0.7415483
0.17225337 0.008287143 0.74050003
0.20609745 0.0067298133 0.74186945
0.21433677 0.0048786369 0.74536669
0.15667088 0.012106749 0.74775004
0.16513193 0.014523392 0.74584013
0.17448886 0.015438945 0.74337775
0.18491666 0.016924907 0.74249989
0.19529 0.015384174 0.74343586
0.20437291 0.01344628 0.74577779
0.21086475 0.012110475 0.74800003
0.16740952 0.02065905 0.74799997
0.17615837 0.022602858 0.74699998
0.18486729 0.024159927 0.74718398
0.19388095 0.022076905 0.74774998
0.12502354 -0.063189261 0.75205553
0.1233912 -0.055318233 0.75168186
0.12472136 -0.04459225 0.75171435
0.1262816 -0.035367735 0.75327283
0.1307143 -0.031428576 0.75000012
0.12827612 -0.025728617 0.75504351
0.13153173 -0.023727037 0.7515384
0.12798151 -0.017850097 0.75580007
0.13352843 -0.014729396 0.75360531
0.13666479 -0.0051345173 0.75480503
0.14107506 -0.0024289524 0.75040007
0.22685848 -0.003419101 0.75194442
0.23134738 -0.0039778356 0.75418186
0.1377739 0.002164762 0.75739998
0.14421424 0.0056389794 0.75321436
0.15128574 0.0081428578 0.75000012
0.21880302 0.0078696599 0.75114286
0.22538175 0.0049182242 0.75462168
0.23142475 0.0043285717 0.75699991
0.14615014 0.014944309 0.75561911
0.15440689 0.016125903 0.75235021
0.16137147 0.018153142 0.75040007
0.20662421 0.017790588 0.7507059
0.21524101 0.015219157 0.75277787
0.22214343 0.014208071 0.75563163
0.12435047 -0.032281905 0.76000011
0.12557079 -0.027286349 0.76066667
0.12941563 -0.013275812 0.76599997
0.13038535 -0.011370157 0.76200008
0.1294629 -0.0080457143 0.76799995
0.13173231 -0.0053121811 0.76200002
0.12929431 0.003652381 0.76700002
0.13476472 0.0056866664 0.76251233
0.1411429 0.0086857155 0.76000011
0.23161909 0.0094095254 0.76000011
0.13795516 0.012802793 0.76106673
0.14178628 0.014074074 0.76000017
0.1253819 -0.02003143 0.77899998
0.12658453 -0.015182775 0.77495658
0.12658295 -0.0054403874 0.77446878
0.1307019 -0.0022028573 0.77100009
0.12741096 0.0012239682 0.77183342
0.13089018 0.0012228572 0.77066666
0.12330218 -0.013972214 0.78188241
0.12308609 -0.008824762 0.7852
