# .PCD v0.7 - Point Cloud Data file format
VERSION 0.7
FIELDS x y z
SIZE 4 4 4
TYPE F F F
COUNT 1 1 1
WIDTH 361
HEIGHT 1
VIEWPOINT 0 0 0 1 0 0 0
POINTS 361
DATA ascii
-0.25158793 -0.1029592 0.5977692
-0.24497318 -0.10271325 0.5949735
-0.23509517 -0.10260569 0.59453177
-0.22738168 -0.10239269 0.59655559
-0.25139037 -0.097800441 0.59609097
-0.24452776 -0.09506245 0.59541547
-0.2351726 -0.094964989 0.59540969
-0.22821215 -0.096604615 0.59786659
-0.24326527 -0.087025054 0.59854156
-0.23796374 -0.086068645 0.59826458
-0.24359334 -0.071195431 0.59899998
-0.23332477 -0.07016857 0.59899998
-0.2424524 -0.069027632 0.59899998
-0.23413973 -0.068538651 0.59899998
-0.24236624 -0.11268461 0.60873687
-0.23642142 -0.1123013 0.60799998
-0.22510964 -0.11151658 0.60817647
-0.25310433 -0.10490216 0.60024995
-0.24422197 -0.10851276 0.60626662
-0.2342387 -0.10823782 0.60594445
-0.22414838 -0.10474855 0.60371441
-0.21819252 -0.10341657 0.60592604
-0.25332659 -0.092626274 0.60225004
-0.24857144 -0.091238104 0.60000002
-0.23280001 -0.090857141 0.60000002
-0.2242161 -0.094445668 0.60382712
-0.21923999 -0.094540007 0.60900003
-0.26041999 -0.081780002 0.60900003
-0.25378427 -0.084314406 0.6050418
-0.24597944 -0.083846688 0.60113525
-0.23371556 -0.084684327 0.60241526
-0.22605854 -0.085312709 0.60555071
-0.21888006 -0.080487616 0.60799998
-0.26173368 -0.075628921 0.6061818
-0.25457031 -0.07529965 0.60408014
-0.24477635 -0.075556241 0.60098433
-0.23558766 -0.075202525 0.60222989
-0.22469716 -0.074745394 0.6038025
-0.21863177 -0.075067811 0.60748273
-0.25319362 -0.066371024 0.60697067
-0.24560799 -0.064148985 0.60481155
-0.23418599 -0.063992217 0.60582709
-0.22583859 -0.065745994 0.6068731
-0.21860157 -0.067388229 0.60854542
-0.24461904 -0.056766663 0.60757458
-0.23555616 -0.057468444 0.60829985
-0.22881322 -0.058833931 0.60862499
-0.24112 -0.11733335 0.61600012
-0.23568963 -0.11542405 0.61432445
-0.22891599 -0.11409595 0.61199999
-0.21622057 -0.10263646 0.61252934
-0.22106376 -0.094860375 0.61316669
-0.2168491 -0.095236808 0.61414903
-0.26100343 -0.084282286 0.61199999
-0.25894761 -0.084376186 0.611
-0.22223879 -0.085843742 0.61247998
-0.21647778 -0.084291264 0.61654848
-0.20860477 -0.080503806 0.61699998
-0.2147733 -0.075586379 0.6152308
-0.20894291 -0.077691436 0.61799997
-0.26105779 -0.062353022 0.61444449
-0.25678656 -0.062301289 0.61194992
-0.22248383 -0.061904449 0.61274987
-0.21740048 -0.065443575 0.61512822
-0.26209107 -0.055046193 0.61737496
-0.25490946 -0.05483916 0.61305165
-0.24470104 -0.052227255 0.61159247
-0.23419519 -0.053075906 0.61272347
-0.22527577 -0.055071764 0.616633
-0.21936837 -0.056921799 0.61900002
-0.26140863 -0.047636192 0.61749995
-0.25485879 -0.045325726 0.61541444
-0.24537492 -0.045087401 0.61490119
-0.23539785 -0.045364637 0.61572099
-0.22633567 -0.046421438 0.61771113
-0.21938096 -0.047725081 0.61866665
-0.25256735 -0.035601169 0.61853129
-0.24527203 -0.036513619 0.61734051
-0.23776874 -0.03850425 0.6176154
-0.21457586 -0.093011588 0.62782758
-0.20918861 -0.090925723 0.62400001
-0.21284884 -0.086837709 0.62295997
-0.20845746 -0.085899599 0.62359089
-0.21205287 -0.073333278 0.62499994
-0.20787951 -0.075079903 0.62676674
-0.21333639 -0.065114364 0.62322229
-0.20853294 -0.062466845 0.62676471
-0.26479429 -0.053314291 0.62199998
-0.22104153 -0.052658644 0.62128574
-0.21488303 -0.054986656 0.62344593
-0.20752032 -0.055295479 0.62705004
-0.26403847 -0.044487413 0.62143469
-0.25862861 -0.040742859 0.62
-0.2326476 -0.040742859 0.62
-0.22348876 -0.043340929 0.62343907
-0.21592674 -0.04737971 0.62673807
-0.2099314 -0.0496419 0.62800002
-0.26449171 -0.034688648 0.62662268
-0.25649971 -0.034168392 0.62111533
-0.24421111 -0.031763349 0.62078792
-0.23462953 -0.034543503 0.62376547
-0.22684959 -0.037440266 0.62627774
-0.26394239 -0.027040092 0.6283437
-0.25473958 -0.024952367 0.62608922
-0.24492799 -0.025119103 0.62549305
-0.23588659 -0.025315851 0.62764412
-0.25302848 -0.018662637 0.62900007
-0.24700776 -0.018993879 0.6288572
-0.23662381 -0.019568888 0.62900001
-0.22016954 -0.09638238 0.63249999
-0.21767369 -0.096510835 0.63137501
-0.20669195 -0.070727095 0.63233334
-0.20527911 -0.065003902 0.63462287
-0.2036328 -0.054998823 0.63570917
-0.19890645 -0.056101467 0.63869232
-0.22139983 -0.041796573 0.63240004
-0.21437031 -0.04364251 0.6345436
-0.20912722 -0.048803173 0.63444448
-0.27077138 -0.035875559 0.63133335
-0.23056543 -0.031049207 0.63099998
-0.22417037 -0.034104399 0.63452637
-0.2180562 -0.037417252 0.6360001
-0.27028459 -0.022793146 0.63320005
-0.26602107 -0.023043618 0.63211989
-0.23136537 -0.024832046 0.63199985
-0.22530906 -0.025430191 0.63537842
-0.26415965 -0.015626153 0.63503861
-0.25502264 -0.013936997 0.63230199
-0.24480473 -0.014246204 0.63312119
-0.23453386 -0.014800988 0.63379228
-0.22739515 -0.015459504 0.63679552
-0.2622126 -0.0083954297 0.63880008
-0.25403693 -0.0064091897 0.63727021
-0.24500029 -0.0060172351 0.63725001
-0.23552674 -0.0081143295 0.63768178
-0.2279516 -0.0087204771 0.63883346
-0.20423999 -0.070533343 0.64400011
-0.20195121 -0.066874944 0.64259094
-0.1982663 -0.062004063 0.64373338
-0.20230305 -0.050850101 0.64019996
-0.19553608 -0.055461071 0.64430922
-0.21280469 -0.041955713 0.64392853
-0.20508152 -0.045809578 0.64466661
-0.19776683 -0.046879053 0.64728576
-0.22033961 -0.033003811 0.64342862
-0.21825315 -0.03470416 0.64554542
-0.22088982 -0.024390819 0.64219999
-0.21844758 -0.024303524 0.64692599
-0.26820025 -0.01067929 0.64074999
-0.22267936 -0.014586507 0.64217043
-0.21808638 -0.01506817 0.64622581
-0.27070442 -0.0053298413 0.64599997
-0.26545787 -0.004421609 0.6438446
-0.25600564 -0.0022007448 0.64060867
-0.24444258 -0.0016762504 0.64006251
-0.23485486 -0.0032526783 0.64093733
-0.22454537 -0.0046549607 0.64304173
-0.21746364 -0.0046542333 0.64705539
-0.2709257 0.0018514286 0.648
-0.26472101 0.0048278468 0.647587
-0.25498539 0.0049241362 0.64553142
-0.2447906 0.0050377459 0.64386678
-0.2353759 0.0046216762 0.64549309
-0.22593948 0.0023015875 0.64713341
-0.21712857 0.0014398943 0.64788884
-0.26598859 0.01049143 0.648
-0.2524114 0.01049143 0.648
-0.24520759 0.011141063 0.64776462
-0.23774397 0.010694445 0.64783335
-0.20269497 -0.070814706 0.65142864
-0.19879144 -0.070418738 0.65433335
-0.20075372 -0.067166671 0.65180004
-0.19597231 -0.065251291 0.65247363
-0.19222793 -0.053133748 0.65223324
-0.18724403 -0.053271618 0.65688455
-0.17985331 -0.053266671 0.65800011
-0.2113111 -0.040899046 0.65066665
-0.20752692 -0.040867347 0.65157139
-0.19317792 -0.047284443 0.65362966
-0.18753621 -0.047631003 0.65711111
-0.21466108 -0.034783859 0.65109813
-0.20777905 -0.038145002 0.65125
-0.21580942 -0.025441904 0.6525625
-0.21508697 -0.014188072 0.65373689
-0.21302266 -0.0055697937 0.65245664
-0.20828645 -0.0036827163 0.65618521
-0.27052379 0.0043333336 0.64999998
-0.26696429 0.0052619055 0.65000004
-0.23152384 0.0086666672 0.64999998
-0.22446099 0.0068492969 0.65080965
-0.21438059 0.0054267421 0.65266174
-0.20663208 0.0042457981 0.65704352
-0.2701095 0.01372381 0.65499997
-0.26399952 0.014305443 0.65414286
-0.25521687 0.015159139 0.65244234
-0.24503988 0.016204979 0.6517145
-0.23479266 0.015172987 0.65278786
-0.22545236 0.014400524 0.65535486
-0.21607167 0.014185932 0.65697932
-0.2093067 0.01065333 0.65800011
-0.26049474 0.021290954 0.65750003
-0.2542538 0.022796102 0.6568439
-0.24473502 0.023213355 0.65607315
-0.23545615 0.022879975 0.65713906
-0.22881278 0.021566261 0.65771437
-0.18498547 -0.055372659 0.66045451
-0.17890413 -0.051384766 0.6606667
-0.1933721 -0.042667903 0.66180003
-0.18441013 -0.044177271 0.66344815
-0.17790093 -0.044499598 0.6650607
-0.1929689 -0.038643051 0.6652
-0.18574604 -0.038073126 0.66731811
-0.1790372 -0.038865719 0.66900003
-0.21336651 -0.023089634 0.66188896
-0.20861319 -0.021458477 0.66660011
-0.21232332 -0.016218146 0.66240537
-0.20673606 -0.014383768 0.66636175
-0.20403209 -0.0055834386 0.66322029
-0.1981357 -0.0024117145 0.66510004
-0.20280071 0.0060217679 0.66042852
-0.19630571 0.005414316 0.66480654
-0.27061051 0.018293653 0.66233343
-0.26794869 0.018572595 0.66233343
-0.22350205 0.018946942 0.66000003
-0.21266091 0.017146068 0.66129631
-0.20494416 0.01525443 0.66470838
-0.1975414 0.013883513 0.66768968
-0.27073303 0.024437621 0.66366673
-0.26554283 0.025961455 0.6635285
-0.25554276 0.027729332 0.66108
-0.24503769 0.02842194 0.66070831
-0.23446083 0.027836125 0.66062057
-0.22484371 0.025661055 0.66269106
-0.21480143 0.025042286 0.66522866
-0.20632485 0.022679135 0.66873902
-0.2708829 0.031571429 0.66299999
-0.26482084 0.033769257 0.66660476
-0.25497422 0.034878474 0.66573483
-0.24468362 0.034954678 0.66393209
-0.23489742 0.034673449 0.66526794
-0.22554323 0.032547455 0.6672501
-0.21732457 0.031829149 0.66840017
-0.2519263 0.040394861 0.66900003
-0.2444099 0.041229066 0.66841173
-0.2389286 0.040139999 0.66900003
-0.17417707 -0.041046664 0.67627275
-0.18333401 -0.033441387 0.67367554
-0.1752107 -0.034971893 0.67623448
-0.16975133 -0.034206804 0.67771429
-0.18106665 -0.029100001 0.67900002
-0.17363 -0.027206186 0.67900008
-0.16878 -0.025866667 0.67900002
-0.2034 -0.011623809 0.67799997
-0.1985267 -0.01487333 0.67900002
-0.20120059 -0.006727187 0.6753636
-0.19888204 -0.0042196335 0.67784607
-0.1917983 0.0069933934 0.67581254
-0.18830952 0.0091334684 0.67814285
-0.19339873 0.016035756 0.67223912
-0.18675813 0.014899566 0.67763048
-0.21120951 0.029990479 0.67000002
-0.2044358 0.026485434 0.67107314
-0.19501886 0.024837462 0.6752063
-0.1877178 0.021432377 0.6785
-0.26225713 0.038923811 0.67000002
-0.23137335 0.038413338 0.67000002
-0.22449952 0.037250135 0.6709677
-0.21456021 0.035714801 0.67226541
-0.20521782 0.034642015 0.67464072
-0.19731839 0.032737244 0.67762077
-0.26339021 0.045735847 0.67382032
-0.25530452 0.045101851 0.67211765
-0.24518682 0.046255674 0.67179996
-0.23501852 0.044914957 0.67262715
-0.22505376 0.04506278 0.67542022
-0.21542193 0.044185542 0.67684621
-0.20837143 0.041268297 0.6785714
-0.26517171 0.051538043 0.6764375
-0.25433105 0.052940514 0.6766786
-0.24493659 0.054425627 0.67702019
-0.23528519 0.053110562 0.67791432
-0.22525331 0.051932067 0.67877769
-0.21922 0.051086672 0.67900002
-0.24379332 0.060463335 0.67900002
-0.2047314 -0.020341899 0.68900001
-0.18439607 -0.024334522 0.68315917
-0.17577589 -0.022713527 0.68150008
-0.16827375 -0.021169208 0.68277782
-0.20382662 -0.015520503 0.68376482
-0.19758584 -0.01535994 0.68140012
-0.18339714 -0.017739238 0.68659997
-0.1750111 -0.016455291 0.6866287
-0.16793428 -0.017639684 0.68611115
-0.20011429 -0.0090666674 0.68000001
-0.19514929 -0.0041675321 0.68295461
-0.1876511 -0.0010911111 0.68733335
-0.19355263 0.0020089345 0.68166673
-0.18477499 0.005027377 0.68382525
-0.17879826 0.0076054209 0.68769228
-0.18171619 0.014847063 0.68266678
-0.1782036 0.015208902 0.68734622
-0.19067904 0.028537145 0.68099999
-0.1849798 0.024926042 0.6844182
-0.17914049 0.021409048 0.68816668
-0.20178631 0.039268952 0.68040001
-0.19357666 0.036007036 0.68247843
-0.18776196 0.032778807 0.68695003
-0.21265166 0.048085321 0.68074989
-0.20478609 0.045277581 0.68296224
-0.19694981 0.044338334 0.68660003
-0.26218155 0.055411432 0.68076926
-0.25602353 0.05768948 0.68204767
-0.24389334 0.058674283 0.68000001
-0.23473834 0.057728313 0.68036371
-0.22497799 0.056544323 0.68202454
-0.21454991 0.055060122 0.68399996
-0.20597705 0.053699568 0.68737763
-0.1988257 0.050526671 0.68900001
-0.2609514 0.061324768 0.685
-0.25511828 0.062136579 0.68349999
-0.24440435 0.063028678 0.68183345
-0.23512177 0.063247912 0.68457884
-0.2253993 0.063015021 0.68531436
-0.21508788 0.062474944 0.68556261
-0.20121911 -0.01257619 0.69500011
-0.19655408 -0.011691851 0.69488901
-0.18361056 -0.01331126 0.69143486
-0.1737984 -0.012643386 0.69066679
-0.16835046 -0.013152382 0.69050002
-0.2002686 -0.0099142864 0.69400001
-0.19367811 -0.0074628927 0.6933704
-0.18451431 -0.0054743215 0.69153875
-0.17502631 -0.0052235029 0.69148415
-0.1671938 -0.0046054684 0.69141954
-0.1811524 0.0010952383 0.69000012
-0.17457914 0.0049915812 0.69212514
-0.16770679 0.0049640681 0.69572979
-0.17323881 0.014998428 0.69313973
-0.16759387 0.0133691 0.69800001
-0.18179472 0.028120425 0.69022226
-0.17590076 0.025035976 0.69278449
-0.19070905 0.038799524 0.69050002
-0.18387619 0.035628263 0.69213653
-0.17740937 0.03412227 0.69589663
-0.19219424 0.04565949 0.69080013
-0.18542589 0.044682276 0.69475412
-0.17914905 0.04285413 0.69583338
-0.20275711 0.057313148 0.69104177
-0.19507416 0.054961897 0.69401789
-0.18858281 0.053302798 0.69631243
-0.20152669 -0.014060001 0.70300001
-0.17078811 0.019347141 0.70050001
-0.1680311 0.015889689 0.70029408
-0.17186721 0.025298096 0.70166671
-0.16837542 0.02575041 0.70286667
-0.17343256 0.035808463 0.70364273
-0.16860776 0.034704816 0.70563155
-0.18130204 0.047708694 0.70312506
-0.17571247 0.044733554 0.70551074
-0.16888466 0.04283556 0.70400006
-0.17776123 0.05099551 0.70585716
