# .PCD v0.7 - Point Cloud Data file format
VERSION 0.7
FIELDS x y z
SIZE 4 4 4
TYPE F F F
COUNT 1 1 1
WIDTH 128
HEIGHT 1
VIEWPOINT 0 0 0 1 0 0 0
POINTS 128
DATA ascii
0.57983333 -0.72356671 1.715
0.58701998 -0.72226 1.7149999
0.58691108 -0.71376663 1.715
0.57983333 -0.70069999 1.715
0.58473337 -0.70396668 1.715
0.57983333 -0.69743329 1.715
0.58310002 -0.69743329 1.715
0.57925618 -0.72694188 1.723
0.58417904 -0.72201908 1.723
0.58335859 -0.71463478 1.723
0.58253813 -0.70725048 1.723
0.55753905 -0.73073912 1.732
0.56578672 -0.73073912 1.732
0.57568383 -0.73073912 1.732
0.5580889 -0.72634035 1.732
0.57662642 -0.724141 1.7320001
0.58228189 -0.72414094 1.732
0.57766324 -0.71424377 1.732
0.58228189 -0.71424383 1.732
0.57898289 -0.70599627 1.732
0.5831067 -0.70352197 1.732
0.54772407 -0.7334308 1.7410001
0.5538038 -0.73287809 1.7410001
0.56706858 -0.73122001 1.7410001
0.5737009 -0.73122001 1.7410001
0.55794907 -0.72541672 1.7410001
0.56582499 -0.72417313 1.7410001
0.57336932 -0.7239244 1.7409999
0.55877811 -0.71795517 1.7410001
0.56541049 -0.71505356 1.7410001
0.5749445 -0.71463907 1.7410001
0.56872672 -0.70800668 1.7410001
0.57583278 -0.70563799 1.7410001
0.58447856 -0.70220339 1.7410001
0.58572215 -0.6947419 1.7410001
0.54445243 -0.74213052 1.7589999
0.54722232 -0.73388892 1.75
0.55260676 -0.73180419 1.7529999
0.55458963 -0.72485864 1.7527694
0.55689716 -0.71521783 1.7559999
0.56444448 -0.71388888 1.75
0.55609936 -0.70521218 1.757
0.56505114 -0.70486671 1.7541537
0.57454866 -0.7034108 1.7527001
0.58166671 -0.70166671 1.75
0.5545038 -0.69522381 1.7589999
0.56455529 -0.69522381 1.7589999
0.5746485 -0.69594169 1.7579999
0.58403134 -0.69551772 1.7559999
0.59135902 -0.69354868 1.7589999
0.5545038 -0.68852288 1.7589999
0.56455523 -0.68852288 1.7589999
0.57293147 -0.68852288 1.7589999
0.54555428 -0.74256003 1.768
0.54723811 -0.73919243 1.768
0.55060577 -0.73582482 1.768
0.5528509 -0.72572201 1.768
0.55397338 -0.71561909 1.768
0.55397338 -0.70888388 1.768
0.55060577 -0.69878101 1.768
0.58360839 -0.69339275 1.768
0.59101719 -0.69204569 1.768
0.55565715 -0.68867809 1.768
0.56576002 -0.68867809 1.768
0.57249534 -0.68867809 1.768
0.54438257 -0.74634004 1.777
0.54663903 -0.7395705 1.777
0.55002391 -0.73618579 1.777
0.55171627 -0.72603136 1.7770001
0.55171627 -0.71587712 1.7770001
0.55137777 -0.7063998 1.7770001
0.55340862 -0.69726098 1.777
0.54260391 -0.75352198 1.786
0.54600573 -0.74501717 1.786
0.54940772 -0.73651242 1.7859999
0.54770672 -0.72630668 1.7860001
0.54770672 -0.71610099 1.7860001
0.54827374 -0.70816326 1.7859999
0.5528096 -0.70249343 1.786
0.54533821 -0.75219047 1.795
0.54875708 -0.74193335 1.795
0.54875708 -0.73680478 1.795
0.54533821 -0.72654772 1.795
0.54533821 -0.71629047 1.795
0.54875708 -0.70945239 1.795
0.54807252 -0.7508077 1.804
0.54807252 -0.74393529 1.804
0.54578161 -0.73362666 1.804
0.54463619 -0.72503626 1.804
0.54463625 -0.71644574 1.8040001
0.54765528 -0.76360762 1.814
0.54765528 -0.75669718 1.814
0.54765528 -0.74460381 1.814
0.5442 -0.73078293 1.814
0.5442 -0.72732759 1.814
0.54720002 -0.75913149 1.824
0.55067432 -0.7556572 1.824
0.54720002 -0.74523431 1.824
0.54720002 -0.73828578 1.824
0.5499 -0.77335149 1.8329999
0.54873616 -0.76636863 1.8329998
0.54815429 -0.75676715 1.8329999
0.54640859 -0.74716574 1.8329999
0.54640859 -0.73843712 1.8329999
0.54938948 -0.77406001 1.8430001
0.54938948 -0.76001811 1.8430001
0.54938948 -0.74597621 1.8430001
0.54884088 -0.76414192 1.853
0.54825431 -0.7860086 1.863
0.55180287 -0.78423429 1.863
0.54825431 -0.7735886 1.863
0.55180287 -0.77713716 1.863
0.54825431 -0.76471722 1.863
0.55180287 -0.7647171 1.863
0.54762948 -0.79022771 1.873
0.5464403 -0.78547078 1.873
0.55119717 -0.78487623 1.873
0.54762948 -0.77595717 1.873
0.55119717 -0.77238947 1.873
0.54762948 -0.76882201 1.873
0.55119717 -0.76525438 1.873
0.53979337 -0.79086012 1.883
0.54338002 -0.79086012 1.883
0.53800005 -0.78548002 1.883
0.54606998 -0.78458339 1.883
0.54535174 -0.78585976 1.8940001
0.55016202 -0.78104949 1.8940001
0.54944003 -0.78336006 1.904
