# .PCD v0.7 - Point Cloud Data file format
VERSION 0.7
FIELDS x y z rgb
SIZE 4 4 4 4
TYPE F F F U
COUNT 1 1 1 1
WIDTH 1246
HEIGHT 1
VIEWPOINT 0 0 0 1 0 0 0
POINTS 1246
DATA ascii
379.54001 6349.1802 14022.81 4285557864
383.19 6348.9102 14024.48 4285557864
388.29999 6342.7002 14020.45 4285557864
394.35999 6351.7002 14019.61 4285557864
399.23001 6351.3501 14021.28 4285557864
402.79999 6349.8301 14020.22 4285557864
407.67001 6349.5098 14020.22 4285557864
412.54001 6349.2002 14020.22 4285557864
418.06 6349.46 14021.59 4294901760
422.28 6348.5698 14018.46 4285557864
426.06 6350.2798 14020.98 4285557864
431.53 6349.8501 14022.65 4285557864
436.14001 6345.6099 14019.38 4285557864
440.87 6343.3101 14018.62 4285557864
445.67999 6342.2402 14022.36 4285557864
449.67001 6346.79 14015.12 4285557864
454.48999 6345.6699 14018.76 4285557864
459.82001 6343.2598 14019.68 4285557864
464.63 6342.23 14021.75 4285557864
468.04001 6338.73 14016.41 4285557864
472.29999 6338.4702 14014.74 4285557864
477.39999 6341.2798 14021.75 4285557864
482.10999 6338.9102 14020.9 4285557864
486.37 6338.6899 14017.56 4285557864
490.76999 6340.2598 14021.75 4294901760
494.72 6336.0298 14016.71 4294901760
499.07001 6336.9199 14021.21 4294901760
504.38 6334.48 14022.12 4294901760
508.41 6331.46 13996.55 4294901760
511.5 6324.25 14009.79 4294901760
516.91998 6330.8301 13994.88 4283335908
522.42999 6331 13996.24 4283335908
525.81 6320.1499 13992.67 4283335908
534.60999 6323.2402 13999.29 4283335908
539.56 6323.9399 13980.33 4286506585
543.82001 6316.6699 13990.15 4283335908
548.77002 6310.4399 13954.23 4286506585
552.78003 6307.6099 13947.01 4286506585
556.62 6302.7202 13942.36 4286506585
561.28003 6300.3901 13939.94 4286506585
565.65002 6294.7402 13937.26 4286506585
570.23999 6291.7402 13933.38 4286506585
579.26001 6290.6099 13916.72 4286506585
583.90002 6288.1699 13917.63 4286506585
588.60999 6286.5298 13913.22 4294901760
593.25 6284.0898 13912.37 4286506585
596.5 6280.0098 13904.09 4286506585
601.38 6280.21 13903.78 4286506585
606.42999 6275.8599 13898.83 4286506585
611.31 6276.0498 13898.53 4286506585
615.58002 6276.2598 13899.9 4286506585
618.63 6270.1802 13890.76 4294901760
623.59003 6265.0898 13889.54 4286506585
629.38 6274.4199 13890.01 4286506585
633.72998 6269.3799 13888.79 4286506585
638.21002 6265.6802 13885.2 4286506585
641.54999 6262.71 13884.74 4286506585
646.28998 6255.77 13875.9 4294901760
651.21997 6256.5 13880.4 4286506585
656.98999 6265.2202 13877.83 4286506585
659.47998 6254.3398 13877.57 4286506585
664.52002 6261.8901 13872.28 4294901760
668.34003 6252.1602 13874.84 4286506585
679.34003 6264.1299 13878.9 4294901760
681.92999 6259.98 13873.95 4286506585
687.26001 6258.77 13872.58 4286506585
691.31 6256.9399 13874.85 4286506585
695.76001 6253.23 13871.36 4294901760
699.94 6252.6299 13876.37 4286506585
703.03998 6247.7798 13870.05 4286506585
708.41998 6247.1299 13871.71 4286506585
713.07001 6245.2998 13870.65 4286506585
716.78003 6235.3599 13849.79 4294901760
722.29999 6215.1602 13801.62 4294901760
726.40997 6208.9902 13789.14 4294901760
730.37 6196.4702 13762.73 4294901760
734.29999 6194.0498 13761.96 4294901760
738.66998 6195.3999 13767.82 4294901760
743.53998 6195.77 13752.34 4294901760
748.13 6193.8901 13751.19 4294901760
754 6202.54 13782.22 4294901760
758.69 6206.29 13796.96 4294901760
938.59998 6025.5698 13451.43 4290313099
944.19 6027.27 13455.32 4290313099
948.53003 6028.48 13461.17 4290313099
952.87 6029.7202 13465.36 4290313099
957.59003 6033.3599 13480.08 4290313099
963.53003 6037.1099 13466.23 4290313099
968.84998 6040.6899 13484.46 4290313099
973.77002 6041.73 13493.62 4290313099
977.22998 6041.0698 13502.01 4290313099
983.39001 6046.0698 13494.39 4290313099
988.34998 6050.9399 13510.18 4290313099
993 6050.1899 13511.94 4290313099
998.35999 6053.79 13521.68 4290313099
1003.03 6056.8101 13533.38 4290313099
1007.79 6056.7002 13529.67 4290313099
1013.94 6061.3599 13547.22 4290313099
1018.53 6063.8198 13554.23 4290313099
1022.82 6064.4302 13550.23 4290313099
1027.52 6067.5 13558.61 4290313099
1032.98 6071.4199 13589.93 4290313099
1038.21 6074.0098 13574.98 4290313099
1043.6 6077.4399 13591.37 4290313099
1047.26 6081.27 13604.53 4290313099
1051.38 6077.2798 13604.34 4290313099
1057.54 6085.1099 13627.16 4290313099
1062.74 6087.3599 13635.75 4290313099
1067.48 6090.4102 13640.71 4290313099
1070.99 6089.7998 13642.46 4290313099
1076.86 6095.77 13659.43 4290313099
1082.23 6095.48 13657.38 4290313099
1086.65 6096.6201 13661.57 4290313099
1091.74 6101.4302 13677.46 4290313099
1096.33 6103.48 13662.78 4290313099
1101.45 6105.0898 13671.75 4290313099
1107.02 6109.1001 13689.61 4290313099
1112.37 6111.9102 13701.32 4290313099
1117.13 6114.75 13716.36 4290313099
1121.3101 6114.3999 13692.78 4290313099
1126.9 6118.4302 13708.97 4290313099
-382.06 6631.6299 14618.69 4291136606
-377.31 6626.48 14616.09 4294901760
-372.26001 6627.4702 14615.77 4294901760
-367.84 6651.3301 14645.26 4291136606
-362.82001 6641.3599 14626.51 4291136606
-357.78 6630.7798 14604.53 4291136606
-353.26001 6629.7002 14603.48 4291136606
-347.19 6623.25 14583.05 4291136606
-341.92001 6619.8301 14573.08 4291136606
-336.94 6609.6201 14576.07 4291136606
-333.04999 6607.9902 14570.2 4291136606
-328.37 6603.25 14557.41 4291136606
-322.95999 6609.3799 14548.05 4291136606
-317.85999 6609.0098 14546.68 4291136606
-313.07999 6602.0098 14538.21 4294901760
-309.07001 6597.6499 14531.93 4291136606
-303.79001 6593.1201 14530.69 4291136606
-298.60999 6590.7202 14528.59 4291136606
-294.01001 6587.04 14521.9 4291136606
-285.20999 6588.2002 14519.9 4291136606
-279.82001 6595.5601 14513.37 4291136606
-274.31 6584.8599 14511.52 4291136606
-269.19 6583.2402 14505.65 4291136606
-265.57999 6587.7998 14498.71 4291136606
-260.92999 6582.3301 14502.92 4291136606
-255.08 6578.0601 14494.86 4291136606
-250.25 6583.96 14488.97 4291136606
-245.17 6583.46 14489.28 4291136606
-241.24001 6579.54 14487.73 4294901760
-236.08 6576.4702 14484.26 4291136606
-230.98 6575.2598 14484.89 4291136606
-225.92 6574.7402 14485.21 4291136606
-220.77 6571.73 14478.2 4291136606
-216.39999 6573.0801 14482.7 4291136606
-211.37 6573.5801 14474.2 4291136606
-206.3 6573.1499 14471.06 4291136606
-201.38 6577.1802 14477.76 4291136606
-196.86 6574.0601 14472.43 4291136606
-191.94 6578.1602 14477.44 4291136606
-187.35001 6572.3301 14471.7 4291136606
-180.94 6568.5898 14466.77 4291136606
-176.84 6580.1899 14469.9 4294901760
-172.99001 6577.73 14466.12 4294901760
-167.34 6578.8701 14475.67 4294901760
-162.77 6572.6899 14461.83 4294901760
-156.84 6562.1401 14436.48 4294901760
-152.36 6558.96 14432.93 4294901760
-147.94 6557.9902 14425.06 4292374703
-142.84 6554.8101 14421.51 4294901760
-137.8 6554.4702 14415.01 4292374703
-132.81 6556.48 14419.2 4292374703
-128.36 6554.04 14413.64 4292374703
-124.56 6552.1401 14411.14 4292374703
-119.55 6553.5898 14412.28 4292374703
-113.77 6546.5 14403.79 4292374703
-109.34 6543.9102 14401.6 4292374703
-105.51 6540.5801 14401.49 4292374703
-101.07 6536.8501 14393.12 4294901760
-96.010002 6534.3701 14389.33 4294901760
-90.900002 6526.8101 14374.35 4294901760
-85.669998 6510.0698 14330.03 4284175857
-77.290001 6487.4902 14278.28 4284175857
-71.550003 6474.8501 14253.96 4284175857
-66.449997 6462.23 14227.86 4294901760
-58.389999 6461.5601 14208.1 4294901760
-53.400002 6456.9102 14206.83 4294901760
-47.810001 6454.2798 14206.39 4294901760
-42.84 6452.27 14207.32 4294901760
-38.490002 6449.1001 14202.08 4294901760
-34.23 6461.75 14206.34 4294901760
-29.23 6452.3501 14207.32 4293801518
-24.290001 6454.9502 14211.2 4293801518
-19.34 6455.5898 14212.57 4293801518
-15.01 6456.8398 14215.3 4293801518
-10.05 6454.9902 14211.2 4294901760
-5.0999999 6456.2402 14213.93 4294901760
0.47 6455.5 14215.92 4294901760
4.8000002 6463.7402 14210.52 4293326516
8.5100002 6458.4902 14206.21 4294901760
13.46 6453.9702 14199.91 4294901760
19.02 6451.1699 14202.83 4293326516
24.58 6447.8799 14199.26 4294901760
28.950001 6457.8901 14201.4 4294901760
32.650002 6456.6299 14198.67 4294901760
37.610001 6457.8398 14201.4 4294901760
42.57 6457.75 14203.08 4287437351
48.130001 6456.5498 14196.91 4294901760
52.290001 6435.0498 14173.16 4294901760
56.610001 6435.6699 14174.62 4294901760
61.529999 6433.7202 14170.43 4294901760
66.440002 6431.8301 14164.57 4294901760
71.540001 6446.21 14176.46 4294901760
75.160004 6438.5498 14159.71 4294901760
79.470001 6437.6699 14166.9 4294901760
84.379997 6435.6401 14164.39 4294901760
89.75 6422.7598 14143.41 4294901760
93.830002 6406.21 14110.7 4291867608
97.419998 6399.8301 14096.77 4291867608
102.06 6383.3599 14033.81 4294901760
106.33 6382.1001 14054.45 4294901760
110.94 6366.21 14021.43 4294901760
115.27 6369.3799 14025.01 4294901760
119.5 6366.73 14021.13 4285557864
124.52 6373.7002 14031.32 4294901760
129.27 6366.54 14021.13 4285557864
134.12 6365.0898 14021.74 4285557864
138.62 6375.54 14027.06 4285557864
142.87 6374.1602 14024.23 4285557864
147.7 6371.46 14022.11 4285557864
153.25 6373.2998 14022.87 4285557864
157.46001 6370.5601 14020.66 4285557864
161.77 6371.7402 14023.48 4294901760
166.14999 6375.5 14028.42 4285557864
170.97 6372.79 14024.54 4285557864
176.53999 6375.2798 14024.99 4285557864
180.78 6373.8701 14023.93 4285557864
185.06 6373.8501 14020.58 4285557864
189.87 6371.0298 14020.05 4285557864
195.36 6370.75 14025.15 4285557864
200.19 6368.52 14027.74 4285557864
204.42 6367.0898 14026.68 4285557864
208.89 6373.1299 14018.82 4285557864
213.75999 6372.2798 14020.89 4285557864
218.60001 6370.7798 14019.74 4285557864
223.49001 6370.6001 14021.5 4285557864
227.8 6371.6899 14024.23 4285557864
232.00999 6369.6201 14021.81 4285557864
237.63 6372.6299 14025.29 4285557864
242.49001 6371.8198 14023.93 4285557864
247.38 6371.75 14018.82 4285557864
250.99001 6370.2598 14019.43 4285557864
255.92999 6371.3999 14020.58 4285557864
261.20999 6365.8599 14019.6 4285557864
265.51001 6366.2998 14020.96 4285557864
270.22 6362.1201 14021.13 4285557864
273.85999 6361.29 14021.43 4285557864
279.17999 6371.04 14021.95 4285557864
284.09 6371.5 14021.64 4294901760
288.51999 6361.25 14024.56 4285557864
293.37 6373.6099 14027.2 4285557864
296.48001 6361.5698 14022.49 4285557864
301.39001 6362 14023.95 4285557864
306.34 6363.1201 14021.58 4285557864
310.89999 6368.8999 14022.26 4294901760
314.88 6362.7598 14019.9 4285557864
318.98001 6359.1802 14021.43 4285557864
324.47 6358.9102 14021.43 4285557864
329.76001 6366.6699 14019.43 4294901760
334.04001 6366.4399 14019.43 4285557864
337.01999 6353.5 14025.24 4294901760
342.5 6364.5801 14023.48 4285557864
347.32001 6363.0298 14022.42 4285557864
352.70001 6360.7202 14021.58 4285557864
357.12 6363.1699 14020.35 4285557864
360.73999 6362.29 14020.66 4285557864
365.88 6366.6001 14023.62 4294901760
371.17999 6363.04 14020.05 4285557864
376.03 6362.1899 14017.01 4285557864
380.14001 6359.2402 14018.23 4285557864
384.51999 6360.8301 14024.09 4285557864
389.67999 6355.2402 14021.43 4285557864
395.22 6365.5698 14021.64 4294901760
399.98001 6363.3101 14020.89 4285557864
403.56 6361.79 14018.07 4285557864
408.31 6359.5698 14015.64 4285557864
413.31 6361.1201 14019.74 4285557864
418.92999 6362.71 14022.26 4285557864
423.03 6359.9102 14016.7 4285557864
427.51001 6362.8101 14021.95 4285557864
432.42999 6363.0498 14024.99 4294901760
437.04999 6358.8501 14020.05 4285557864
441.78 6356.5 14020.96 4285557864
446.89001 6359.52 14019.43 4285557864
450.79001 6362.5601 14021.34 4285557864
456.09 6359.48 14022.56 4294901760
460.78 6356.4902 14022.11 4285557864
465.54999 6354.8101 14020.96 4285557864
469.67999 6352.5801 14018.54 4285557864
473.37 6352.9302 14019.9 4285557864
478.25 6352.5698 14019.9 4285557864
483.42001 6356.1699 14019.74 4294901760
487.98999 6351.8301 14019.9 4294901760
491.69 6352.1602 14021.27 4294901760
496.01999 6352.7202 14012.52 4294901760
500.62 6348.8198 14020.82 4294901760
504.53 6336.3599 13999.52 4294901760
509.42001 6344.0098 13997.53 4294901760
513.67999 6343.6699 13997.53 4283335908
517.51001 6338.0601 13996.63 4283335908
522.97998 6337.6201 13996.63 4283335908
527.71997 6335.77 14000.58 4283335908
531.91998 6334.7998 13999.21 4294901760
535.19 6330.1299 13987.8 4283335908
540.03003 6329.54 13966.03 4286506585
544.69 6319.7202 13970.29 4286506585
549.63 6320.4302 13949.67 4286506585
553.71002 6318.21 13943.82 4286506585
557.89001 6317.1201 13947.55 4286506585
562.22998 6310.9902 13936.75 4286506585
566.47998 6304.0601 13931.26 4286506585
571.63 6307.04 13926.4 4294901760
574.84998 6295.54 13923.13 4286506585
580.29999 6301.8999 13913.32 4286506585
584.83002 6298.1802 13911.41 4286506585
589.65997 6297.73 13911.41 4286506585
594.19 6294.1001 13906.16 4294901760
597.63 6291.8501 13903.73 4286506585
602.34003 6290.1602 13899.24 4294901760
607.64001 6288.3101 13899.85 4286506585
612.15002 6284.7202 13891.17 4286506585
616.31 6283.6899 13889.81 4286506585
619.73999 6281.3901 13889.05 4294901760
624.89001 6278.1499 13891.93 4286506585
630.26001 6283.1602 13881.07 4294901760
635.34003 6279.2598 13884.25 4286506585
639.28998 6276.23 13882.04 4286506585
642.69 6273.8701 13882.94 4286506585
647.84003 6270.71 13882.49 4286506585
652.58002 6269.5498 13882.79 4286506585
657.96002 6274.5298 13871.94 4286506585
660.72998 6266.1602 13877.24 4286506585
665.78003 6273.7002 13871.94 4286506585
670.27002 6264.52 13875.87 4286506585
675.01001 6263.3901 13874.5 4286506585
680.34998 6273.4399 13873 4286506585
683.95001 6272.9902 13876.43 4286506585
688.48999 6269.96 13870.87 4294901760
692.54999 6268.1299 13873.15 4294901760
697.21002 6266.27 13873.75 4294901760
701.67999 6262.75 13858.31 4294901760
704.82001 6258.2402 13866.89 4294901760
709.12 6253.2998 13858.9 4294901760
712.40997 6239.5601 13831.44 4294901760
716.33002 6231.46 13814.68 4294901760
723.01001 6221.2798 13788.83 4294901760
727.21002 6210.6299 13766.62 4294901760
730.41998 6196.8901 13737.39 4294901760
734.12 6192.5801 13732.43 4294901760
738.5 6193.9399 13738.29 4294901760
743.59003 6196.1699 13725.25 4294901760
943.83002 6024.98 13424.53 4290313099
957.72998 6034.2402 13456.29 4290313099
963.57001 6037.3501 13441.08 4290313099
968.08002 6035.8999 13446.35 4290313099
973.81 6041.96 13468.37 4290313099
977.46997 6042.5698 13479.58 4290313099
982.91998 6043.1401 13462.13 4290313099
988.46997 6048 13476.35 4290313099
993.92999 6052.21 13490.87 4290313099
999.28003 6055.77 13500.51 4290313099
1003.27 6058.29 13510.85 4290313099
1008.14 6058.8198 13508.6 4290313099
1014.4 6064.1099 13527.51 4290313099
1019.1 6067.21 13534.22 4290313099
1022.84 6064.5698 13536.77 4290313099
1027.33 6066.3701 13542.32 4290313099
1033.24 6072.9702 13565.72 4290313099
1038.26 6074.2798 13549.7 4290313099
1043.33 6075.8999 13561.99 4290313099
1046.67 6077.8198 13570.86 4290313099
1052.33 6079.3198 13583.15 4290313099
1056.84 6081.1099 13590.46 4290313099
1062.48 6085.8501 13606.35 4290313099
1067.76 6092.0098 13618.23 4290313099
1071.04 6090.1299 13615.41 4290313099
1076.73 6091.6602 13624.38 4290313099
1081.97 6093.9902 13627.97 4290313099
1086.16 6093.8799 13629.34 4290313099
1091.25 6098.6899 13645.23 4290313099
1096.4 6103.8501 13635.81 4290313099
1101.63 6106.0498 13647.81 4290313099
1106.63 6106.98 13658.74 4290313099
1112.01 6109.96 13658.62 4290313099
1116.75 6112.6499 13685.48 4290313099
1121.9399 6117.8501 13674.38 4290313099
-387.17001 6642.5601 14613.59 4291136606
-383.10001 6649.6899 14630.56 4291136606
-378.26999 6643.3398 14623.47 4291136606
-373.45001 6648.6699 14634.57 4291136606
-368.17999 6657.4102 14630.73 4291136606
-362.31 6643.6602 14603.62 4291136606
-358.28 6640.02 14597.02 4291136606
-353.69 6637.6499 14593.15 4291136606
-347.76999 6634.3799 14579.73 4291136606
-342.29001 6627.1001 14561.3 4291136606
-337.38 6618.2598 14565.44 4291136606
-333.45001 6615.9302 14559.89 4291136606
-328.89001 6613.7002 14552.65 4291136606
-322.79999 6619.2402 14541.92 4291136606
-318.26999 6617.5498 14537.73 4291136606
-313.51999 6611.1602 14530.63 4291136606
-309.51999 6607.4199 14525.72 4291136606
-304.54999 6609.75 14524.76 4291136606
-299.07999 6601.1499 14523.84 4291136606
-294.45001 6611.1299 14519.4 4294901760
-285.54999 6596.1099 14509.6 4291136606
-280.29999 6606.6802 14508.3 4294901760
-274.75 6595.3599 14505.1 4291136606
-269.59 6593.04 14499.54 4291136606
-265.79999 6593.27 14497.86 4294901760
-261.54001 6597.6899 14494.28 4291136606
-255.58 6591 14495.67 4291136606
-250.78999 6598.1401 14492.51 4294901760
-245.63 6595.8101 14486.96 4291136606
-241.64999 6590.6099 14484.44 4291136606
-236.49001 6588.1201 14482.26 4291136606
-231.63 6593.75 14483.18 4294901760
-226.25 6584.48 14479.02 4294901760
-221.22 6585.3501 14478.7 4291136606
-216.7 6582.25 14475.24 4291136606
-211.8 6587.1201 14476.39 4291136606
-206.12 6587.3799 14474.71 4291136606
-201.7 6587.5898 14473.02 4294901760
-197.21001 6585.7402 14470.52 4291136606
-192.24001 6588.5698 14472.71 4291136606
-187.74001 6585.9199 14473.97 4294901760
-181.33 6582.7998 14470.42 4291136606
-177.19 6593.1602 14470.81 4294901760
-172.73 6591.9199 14469.67 4294901760
-167.53 6586.1899 14462.34 4294901760
-162.86 6576.1201 14441.81 4294901760
-156.97 6567.46 14420.66 4292374703
-152.53 6566.1802 14421.29 4292374703
-148.17 6568.3599 14420.34 4292374703
-143.08 6565.7998 14418.15 4292374703
-137.48 6569.3501 14418.35 4292374703
-132.98 6564.9399 14410.29 4292374703
-128.60001 6566.3101 14413.11 4292374703
-124.75 6562.5 14406.42 4292374703
-119.71 6562.04 14403.38 4292374703
-113.98 6558.0898 14401.81 4294901760
-109.5 6553.6401 14395.53 4294901760
-105.72 6553.3101 14387.35 4294901760
-101.18 6544.04 14381.49 4294901760
-96.019997 6534.6401 14360.65 4284175857
-90.870003 6525.1299 14343.26 4284175857
-85.610001 6505.8301 14293.4 4284175857
-81.760002 6497.3501 14263.77 4284175857
-76.699997 6490.7998 14258.32 4284175857
-70.940002 6475.96 14216.54 4294901760
-66.540001 6470.9502 14205.44 4294901760
-62.119999 6462.8901 14205.72 4294901760
-57.889999 6474.9302 14210.37 4294901760
-52.849998 6465.8398 14199.36 4294901760
-47.27 6465.7998 14202.8 4294901760
-42.93 6465.0698 14206.56 4293801518
-38.560001 6461.1699 14201.53 4293801518
-34.290001 6473.25 14204.51 4294901760
-29.290001 6465.71 14209.6 4293801518
-24.33 6467.0298 14210.65 4293801518
-19.379999 6468.96 14214.84 4294901760
-15.03 6467.0601 14210.65 4294901760
-10.09 6476.96 14217.91 4293326516
-4.4899998 6469.6001 14216.21 4294901760
0.47 6464.4702 14208.54 4293326516
4.8099999 6470.1401 14197.5 4294901760
8.5299997 6470.6001 14205.75 4294901760
14.11 6466.7002 14200.82 4293326516
19.049999 6462 14199.55 4293326516
24.620001 6460.6201 14200.17 4294901760
29.02 6474.5 14209 4287437351
32.709999 6468.0801 14196.75 4287437351
37.689999 6471.9199 14203.45 4287437351
43.27 6470.5298 14204.07 4287437351
48.23 6469.3398 14196.13 4287437351
52.580002 6471.2798 14198.64 4287437351
56.830002 6460.4102 14200.17 4294901760
61.889999 6471.8198 14200.01 4287437351
66.68 6454.6499 14187.7 4294901760
71.809998 6470.3501 14200.63 4287437351
75.519997 6469.6899 14199.27 4287437351
79.709999 6457.2998 14183.02 4294901760
84.629997 6454.6899 14179.23 4294901760
90 6440.5 14155.44 4294901760
93.879997 6410.0698 14090.49 4291867608
97.379997 6397.3398 14037.58 4294901760
102.21 6392.8301 14027.85 4294901760
106.27 6378.9502 14020.73 4294901760
111.76 6377.5698 14017.91 4294901760
116.12 6381.98 14025.98 4294901760
119.75 6379.96 14023.46 4294901760
124.71 6383.1699 14025.37 4285557864
130.14999 6379.75 14023.46 4285557864
134.67999 6391.6001 14026.48 4285557864
138.89999 6388.1602 14026.26 4285557864
143.17999 6388.0498 14028.02 4285557864
147.96001 6382.7798 14020.26 4285557864
153.58 6387.1499 14026.56 4285557864
157.83 6385.75 14025.5 4285557864
162.03999 6382.4902 14018.59 4285557864
166.41 6385.5801 14023.83 4285557864
171.31 6385.3999 14025.5 4285557864
176.85001 6386.6499 14023.22 4294901760
181.75 6386.46 14024.89 4285557864
185.41 6385.79 14020.09 4285557864
190.86 6383.6099 14021.01 4285557864
195.78999 6384.6299 14028.94 4285557864
200.75 6386.5098 14026.26 4285557864
204.74001 6377.1699 14022.1 4285557864
209.37 6387.6299 14023.97 4285557864
214.24001 6386.75 14025.95 4285557864
219.08 6384.6602 14023.53 4285557864
224.56 6383.7998 14023.83 4285557864
228.21001 6383.0498 14022.47 4285557864
232.49001 6382.8398 14024.14 4285557864
238.03 6383.3701 14020.4 4285557864
242.92 6383.1802 14022.16 4285557864
247.95 6386.2998 14022.3 4285557864
251.52 6383.5298 14020.09 4285557864
256.54001 6386.52 14027.1 4285557864
261.81 6380.4102 14023.08 4285557864
266.57001 6377.02 14016.07 4285557864
270.76001 6374.7598 14020.42 4285557864
274.35001 6372.6401 14019.67 4285557864
279.73001 6383.6899 14021.24 4285557864
284.64999 6384.1001 14022.61 4285557864
289.01001 6371.9502 14021.34 4285557864
293.78 6382.4502 14018.11 4285557864
297.01001 6372.9702 14019.06 4285557864
301.89999 6372.6899 14020.73 4285557864
306.94 6375.71 14022.54 4285557864
311.25 6376.1699 14024 4285557864
315.44 6374.1099 14018.14 4285557864
319.48001 6369.25 14016.85 4285557864
325.07999 6370.9302 14019.37 4285557864
330.45001 6379.9199 14021.85 4285557864
334.70001 6379.0298 14020.4 4285557864
337.45999 6361.7002 14016.56 4285557864
343.17999 6377.1802 14024.44 4285557864
348.62 6375.5801 14023.39 4285557864
353.39001 6373.3101 14022.54 4285557864
357.82001 6375.7598 14021.32 4285557864
361.26999 6371.73 14014.71 4285557864
367.14001 6377.9102 14021.85 4285557864
371.95999 6376.29 14022.47 4285557864
376.95999 6377.9102 14024.89 4294901760
380.85001 6371.21 14017.83 4285557864
385.23999 6372.7998 14023.69 4294901760
390.29999 6365.2998 14016.85 4294901760
395.92001 6376.8799 14019.78 4285557864
400.97 6379.0898 14027.1 4285557864
405.04999 6375.6201 14021.85 4285557864
409.35999 6375.9702 14023.22 4285557864
414.25 6375.6001 14024.89 4285557864
419.67001 6374.0098 14020.4 4285557864
424.60999 6374.3501 14021.85 4285557864
428.35999 6375.3901 14022.91 4285557864
433.03 6371.8701 14017.67 4285557864
437.87 6370.8101 14019.65 4285557864
443.14001 6367.1802 14017.83 4285557864
447.17999 6363.5801 14015.93 4285557864
451.67999 6375.1299 14022.3 4285557864
456.95001 6371.4399 14022.16 4285557864
461.64001 6368.4102 14021.62 4294901760
466.47 6367.3799 14021.93 4294901760
470.64999 6365.77 14020.87 4285557864
474.22 6364.2598 14018.14 4294901760
479.10001 6363.8999 14018.14 4294901760
483.82999 6361.5298 14017.3 4294901760
488.85999 6363.1602 14018.14 4294901760
492.17999 6358.4502 14008.4 4294901760
496.09 6353.6001 14002.01 4294901760
500.76999 6350.6899 13998.22 4294901760
506.17001 6357.0601 13991.72 4283335908
511.04001 6356.5601 13996.83 4294901760
514.69 6356.2202 13998.5 4294901760
518.33002 6348.0898 13992.05 4283335908
523.96002 6349.5 13996.15 4283335908
528.71002 6347.7002 14000.19 4283335908
532.39001 6340.4102 13984.9 4283335908
535.62 6335.1201 13972.13 4286506585
540.57001 6335.7798 13953.17 4286506585
545.87 6333.46 13947.32 4286506585
550.40002 6329.23 13940.71 4286506585
554.47998 6326.96 13936.52 4286506585
558.54999 6324.6401 13935.77 4286506585
562.89001 6318.4502 13926.64 4286506585
567.27002 6312.8398 13922.31 4286506585
571.98999 6311.0801 13921.15 4286506585
576.54999 6314.21 13911.19 4286506585
581.09998 6310.5801 13905.95 4286506585
586.23999 6306.8398 13904.13 4286506585
591.02002 6305.73 13902.67 4286506585
595.07001 6303.4302 13900.25 4286506585
598.51001 6301.1401 13897.73 4286506585
603.28998 6300.1099 13894.7 4286506585
608.59998 6298.2598 13895.3 4286506585
613.37 6297.2202 13890.51 4286506585
617.95001 6294.1899 13886.63 4286506585
621.38 6291.8799 13885.87 4286506585
626.47998 6288.0298 13887.39 4286506585
631.5 6295.6099 13882.08 4286506585
636.28003 6288.5698 13878.35 4286506585
640.37 6286.8101 13878.95 4294901760
644.85999 6289.0298 13877.74 4286506585
648.92999 6281.25 13879.32 4286506585
653.81 6281.4102 13880.77 4294901760
659.53003 6289.48 13878.5 4286506585
661.96997 6277.9902 13876.88 4286506585
667.22998 6287.3701 13875.68 4286506585
671.40002 6275.0698 13872.7 4286506585
677.48999 6286.3599 13872.34 4286506585
681.63 6285.25 13872.64 4294901760
685.03003 6282.9102 13871.88 4294901760
689.84998 6282.3799 13871.88 4294901760
694.09998 6276.7002 13865.79 4294901760
698.09998 6274.29 13865.03 4294901760
701.98999 6265.4702 13852.01 4294901760
705.02002 6260 13844.33 4294901760
708.60999 6248.75 13822.43 4281807870
712.22998 6237.9399 13775.16 4281807870
716.15002 6229.8599 13758.51 4281807870
722.79999 6219.4199 13744.42 4281807870
726.40002 6203.7202 13711.11 4281807870
731.21002 6198.48 13714.88 4281807870
734.84003 6193.5498 13708.56 4281807870
738.25 6191.8301 13707.4 4281807870
973.64001 6040.9199 13440.4 4290313099
977.81 6044.6602 13458.52 4290313099
983.26001 6045.2202 13439.41 4290313099
989.01001 6051.2998 13458.02 4290313099
993.84998 6051.7598 13464.16 4290313099
998.90997 6053.5298 13469.8 4290313099
1002.8 6055.3999 13478.67 4290313099
1008.76 6058.9399 13483.34 4290313099
1014.33 6063.73 13500.87 4290313099
1018.19 6061.7998 13496.39 4290313099
1023.83 6070.4102 13523.97 4290313099
1027.38 6066.6201 13517.05 4290313099
1033.71 6075.7202 13545.99 4290313099
1037.88 6072.0298 13518.87 4290313099
1043.0601 6074.27 13532.52 4290313099
1047.41 6078.6401 13547.04 4290313099
1053.03 6083.3501 13566.25 4290313099
1057.54 6085.1001 13573.46 4290313099
1062.42 6085.52 13577.94 4290313099
1067.3101 6085.96 13579.01 4290313099
1070.4399 6086.71 13581.83 4290313099
1076.6801 6091.3701 13597.71 4290313099
1082.02 6094.2998 13602.68 4290313099
1086.8 6094.0801 13604.04 4290313099
1091.72 6097.9902 13591.9 4290313099
1096.11 6102.2798 13606.32 4290313099
1101.12 6103.2598 13615.59 4290313099
1107.5 6108.4199 13636.16 4290313099
1111.7 6108.2598 13640.95 4290313099
-392.51999 6657.4502 14611.61 4291136606
-387.89001 6654.9199 14612.89 4291136606
-383.63 6658.9102 14622.95 4291136606
-379.12 6658.27 14628.41 4291136606
-374.39999 6665.5098 14643.7 4291136606
-368.23999 6658.4902 14603.42 4291136606
-362.81 6652.8999 14596.1 4291136606
-358.64001 6646.6802 14583.87 4291136606
-353.34 6643.1802 14575.59 4291136606
-348.09 6640.4902 14563.53 4291136606
-342.87 6638.2202 14557.98 4291136606
-337.95001 6629.3901 14562.12 4291136606
-333.92001 6625.1499 14552.38 4291136606
-328.76999 6624.1802 14547.89 4291136606
-323.31 6629.6802 14537.15 4294901760
-318.73999 6627.3701 14531.6 4291136606
-313.95001 6620.3501 14523.14 4291136606
-310.16 6621.0498 14527.96 4294901760
-304.78 6614.6802 14520.87 4291136606
-299.44 6609.0698 14513.53 4294901760
-290.45999 6606.8599 14509.66 4291136606
-290.28 6617.3101 14504.91 4291136606
-285.97 6605.9102 14503.48 4294901760
-280.73999 6617.1001 14503.54 4291136606
-275.35999 6610.02 14496.76 4291136606
-270.37 6612.1699 14499.17 4291136606
-266.34 6606.8301 14500.03 4294901760
-261.73001 6602.54 14492.07 4291136606
-255.94 6600.2402 14486.52 4291136606
-251.24001 6609.9102 14488.89 4291136606
-246.05 6606.8799 14483.66 4294901760
-242.14 6604.2402 14484.93 4294901760
-236.3 6600.4502 14481.7 4294901760
-231.82001 6599.2202 14482.33 4294901760
-226.02 6596.1899 14477.1 4294901760
-221.82001 6603.1401 14477.29 4294901760
-217.16 6596.4302 14478.77 4291136606
-211.56 6599.4502 14475.83 4291136606
-206.56 6601.5498 14478.24 4294901760
-201.42 6599.25 14471.01 4294901760
-197.60001 6598.6699 14471.33 4294901760
-192.56 6599.5898 14469.33 4294901760
-187.39999 6596.3301 14469.23 4291136606
-181.88 6602.5298 14471.42 4294901760
-177.45 6602.8901 14464.61 4294901760
-172.87 6597.25 14453.83 4294901760
-167.57001 6587.7002 14438.13 4294901760
-162.31 6579.54 14421.8 4292374703
-157.31 6581.6001 14424.21 4292374703
-152.17999 6578.4702 14420.75 4294901760
-148.46001 6581.25 14421.17 4292374703
-143.32001 6576.8501 14413.11 4292374703
-137.7 6579.71 14413.62 4292374703
-133.28 6579.8101 14413.62 4292374703
-128.81 6576.6699 14408.39 4292374703
-125.03 6577.2998 14411.43 4292374703
-119.92 6573.6401 14401.38 4292374703
-114.1 6565.29 14390.18 4294901760
-109.61 6560.1699 14382.44 4294901760
-105.76 6555.6299 14377.83 4294901760
-100.55 6544.0898 14339.61 4284175857
-95.980003 6532.0601 14314.9 4284175857
-90.290001 6528.5498 14321.59 4284175857
-85.620003 6506.6001 14267.88 4284175857
-81.790001 6499 14252.91 4284175857
-76.610001 6482.71 14213.44 4294901760
-70.959999 6478.25 14207.14 4294901760
-66.620003 6478.9199 14208.51 4294901760
-62.23 6473.7798 14202.52 4294901760
-57.970001 6483.9102 14201.21 4293801518
-52.990002 6482.46 14206.95 4293801518
-47.369999 6479.8301 14206.52 4293801518
-43.049999 6483.8301 14208.01 4293801518
-38.66 6476.5 14206.31 4293801518
-34.369999 6489.1499 14212.31 4293801518
-28.73 6478.46 14210.5 4293801518
-24.42 6489.0601 14217.43 4294901760
-19.440001 6487.77 14216.38 4293326516
-14.46 6487.1802 14213.25 4293326516
-10.1 6482.4102 14215.42 4293326516
-4.5 6484.04 14206.33 4293326516
0.47 6475.9502 14206.61 4293326516
4.8200002 6484.8501 14200.9 4294901760
9.1700001 6482.0601 14203.82 4293326516
14.13 6478.8198 14200.35 4294901760
19.110001 6480.1899 14197.96 4287437351
24.67 6473.3701 14201.06 4287437351
29.07 6484.71 14204.34 4287437351
32.779999 6482.1001 14200.47 4287437351
38.380001 6482.1299 14198.79 4287437351
43.360001 6483.29 14203.2 4287437351
48.34 6484.6201 14202.58 4287437351
52.700001 6485.2598 14202.27 4287437351
56.919998 6471.2598 14196.88 4287437351
67.519997 6475.6401 14204.95 4287437351
71.959999 6483.71 14202.89 4287437351
76.290001 6482.4199 14200.16 4287437351
80 6480.1899 14206.21 4287437351
84.940002 6478.2202 14202.03 4294901760
97.510002 6406.1401 14030.16 4294901760
102.36 6402.29 14021.88 4294901760
106.51 6393.4702 14025.88 4294901760
111.97 6389.5601 14017.5 4285557864
116.42 6398.6899 14021.66 4285557864
119.96 6391.3198 14021.69 4285557864
124.9 6393.25 14020.77 4285557864
130.39 6391.7402 14023.06 4285557864
139.09 6396.9902 14018.93 4285557864
143.41 6398.1401 14021.66 4285557864
148.28 6396.6802 14024.03 4285557864
153.82001 6397.23 14021.96 4285557864
158.10001 6396.4502 14022.27 4285557864
162.42999 6397.6299 14025.09 4285557864
167.35001 6398.1699 14024.79 4285557864
172.19 6395.5098 14019.24 4285557864
177.2 6399.2598 14024.17 4285557864
182.11 6399.0698 14025.84 4285557864
185.81 6399.6899 14023.86 4285557864
191.24001 6396.2202 14021.96 4285557864
196.08 6394.1001 14021.21 4285557864
200.96001 6393.1699 14026.63 4285557864
205.17 6390.4502 14022.75 4285557864
209.78 6400.2402 14024.92 4285557864
214.60001 6397.4902 14022.81 4285557864
220.00999 6394.1001 14017.56 4285557864
224.92 6393.8799 14019.24 4285557864
228.59 6393.7998 14017.56 4285557864
233.53999 6394.8101 14021.96 4294901760
238.5 6395.98 14021.35 4285557864
243.45 6397.0298 14025.84 4285557864
248.48 6400.1499 14025.98 4285557864
252.60001 6395.4902 14019.68 4285557864
257.48001 6394.6699 14018.31 4285557864
262.26999 6391.73 14021.21 4285557864
267.17999 6391.5298 14021.21 4285557864
271.5 6392.0698 14019.24 4285557864
274.85999 6384.6201 14017.5 4285557864
280.31 6396.9199 14023.56 4285557864
285.16 6395.4102 14020.74 4285557864
289.70001 6387.1299 14026.18 4294901760
294.44 6396.96 14023.25 4285557864
297.91 6392.1401 14021.96 4294901760
302.48999 6385.29 14021.69 4285557864
307.54999 6388.3599 14021.83 4285557864
312.45001 6388.0698 14023.5 4285557864
316.12 6387.9399 14021.83 4285557864
320.28 6385.04 14023.06 4285557864
325.72 6383.52 14020.33 4285557864
331.07001 6391.8999 14019.68 4285557864
335.35999 6391.6299 14021.35 4285557864
338.29001 6377.4399 14024.44 4285557864
343.85999 6389.77 14025.4 4285557864
349.17001 6385.6602 14017.03 4285557864
353.98999 6384.04 14019.41 4285557864
358.78 6392.8301 14030.33 4285557864
362.16 6387.4702 14022.58 4285557864
367.94 6391.75 14025.54 4285557864
372.62 6387.5898 14020.6 4285557864
377.63 6389.2598 14023.11 4285557864
381.76001 6386.3198 14024.34 4285557864
385.85001 6382.8599 14019.1 4294901760
391.23001 6380.4302 14023.36 4285557864
397.42999 6391.3301 14024.92 4285557864
401.56 6388.4902 14021.04 4285557864
405.69 6385.6802 14017.26 4285557864
410.04999 6386.6499 14019.99 4285557864
414.85999 6385.04 14018.93 4285557864
420.34 6384.0698 14015.8 4285557864
425.39999 6386.3198 14019.68 4285557864
429.03 6385.4502 14018.31 4285557864
433.89001 6384.5 14016.95 4285557864
438.82001 6384.6802 14023.42 4285557864
444.10001 6381 14021.52 4285557864
448.14999 6377.4502 14017.95 4294901760
452.48001 6386.4302 14020.43 4285557864
457.79999 6383.3999 14019.99 4285557864
462.54999 6380.9902 14022.58 4285557864
467.26001 6378.1001 14018.79 4294901760
471.57999 6378.3501 14021.83 4294901760
475.10999 6376.1802 14017.64 4294901760
480 6375.8101 14017.64 4294901760
484.78 6374.1001 14018.26 4294901760
489.54001 6371.9702 14009.06 4294901760
492.66 6364.6899 13995.44 4283335908
497.59 6364.9199 13998.57 4283335908
502.23001 6369.2202 13998.09 4283335908
512.09998 6369.7402 13999.15 4283335908
515.65997 6368.1499 13998.09 4283335908
520.01001 6361.21 13994.39 4294901760
524.32001 6353.8599 13979.1 4286506585
528.71002 6347.6602 13973.4 4286506585
536.64001 6347.29 13958.1 4286506585
541.09003 6341.9702 13940.23 4286506585
546.34998 6339.02 13933.01 4286506585
550.94 6335.4102 13927.77 4286506585
555.29999 6336.3198 13930.59 4286506585
559.09998 6330.8101 13922.83 4286506585
563.78003 6328.4302 13922.07 4286506585
568.16998 6322.8101 13917.74 4286506585
572.72998 6319.1802 13912.5 4286506585
577.46002 6324.1699 13906.63 4286506585
582.13 6321.8198 13904.21 4286506585
587.40002 6319.3198 13905.12 4286506585
591.89001 6315.0601 13896.75 4294901760
596.13 6314.6201 13898.42 4286506585
599.58002 6312.3701 13896 4286506585
604.96997 6311.23 13892.87 4286506585
609.37 6306.2998 13886.57 4286506585
614.46997 6308.4399 13888.78 4286506585
619.12 6306.0698 13884.59 4286506585
622.54999 6303.7202 13885.51 4286506585
627.53003 6298.5801 13884.2 4286506585
632.69 6307.3999 13881.62 4294901760
637.72998 6302.9199 13881.77 4286506585
641.63 6299.2598 13879.96 4294901760
645.52002 6295.5601 13878.05 4294901760
650.69 6292.4399 13875.92 4286506585
654.78003 6290.6899 13874.77 4286506585
660.57001 6299.3999 13873.95 4286506585
663.28998 6290.4702 13876.22 4294901760
669.02002 6298.5098 13873.95 4294901760
672.59998 6286.27 13869.21 4286506585
678.62 6296.8999 13869.15 4294901760
682.78003 6295.8198 13867.79 4294901760
686.25 6294.0601 13870.07 4294901760
690.32001 6286.6001 13854.78 4294901760
694.35999 6279.0498 13844.59 4294901760
698.60999 6273.4399 13836.92 4294901760
701.76001 6263.4502 13821.18 4281807870
704.58002 6256.0801 13807.56 4281807870
708.51001 6247.9199 13794.24 4281807870
720.10999 6227.48 13754.32 4281807870
719.71002 6224.0601 13720.61 4281807870
723.56 6220.7798 13733.65 4281807870
726.64001 6205.77 13703.47 4281807870
731.20001 6198.4102 13674.69 4281807870
734.89001 6193.9199 13683.23 4281807870
738.66998 6195.3501 13687.32 4281807870
993.88 6051.9502 13437.25 4290313099
998.52002 6051.1802 13437.25 4290313099
1002.51 6053.7002 13449.23 4290313099
1008.17 6055.3901 13449.8 4290313099
1013.95 6061.4302 13470.07 4290313099
1019.24 6064.4399 13476.78 4290313099
1022.92 6065.02 13486.24 4290313099
1027.41 6066.8301 13491.79 4290313099
1033.23 6072.8701 13513.8 4290313099
1038.39 6071.52 13492.24 4290313099
1043.21 6075.1499 13508.71 4290313099
1046.91 6075.7598 13514.85 4290313099
1052.33 6079.3501 13517.76 4290313099
1056.83 6081.0298 13538.53 4290313099
1062.58 6086.4502 13554.11 4290313099
1068.23 6091.25 13564.92 4290313099
1071.62 6089.98 13563.46 4290313099
1077.0601 6093.5098 13574.86 4290313099
1082.4 6096.4399 13579.82 4290313099
1086.96 6094.9702 13580.11 4290313099
1096.39 6103.8101 13583.85 4290313099
1101.28 6104.1499 13591.66 4290313099
1107.22 6106.8799 13606.77 4290313099
-404.07999 6668.3901 14614.78 4291136606
-398.69 6664.25 14605.05 4291136606
-394.04001 6683.1802 14640.19 4291136606
-385.32999 6688.4102 14659.81 4294901760
-380.17999 6676.8999 14626.6 4291136606
-374.63 6669.6899 14624.97 4291136606
-368.67999 6666.4399 14593.07 4291136606
-363.20999 6660.25 14582.62 4291136606
-359.04001 6654 14572.17 4291136606
-353.92999 6654.27 14572.17 4291136606
-348.64001 6650.9399 14558.75 4291136606
-343.44 6649.2998 14554.56 4291136606
-338.29001 6636.0298 14548.98 4291136606
-334.38 6634.3101 14544.79 4291136606
-329.60001 6640.8301 14541.93 4291136606
-323.73001 6638.21 14528.19 4291136606
-319.26999 6638.4199 14528.19 4291136606
-314.54001 6632.6899 14522.56 4291136606
-310.5 6628.2798 14516.19 4291136606
-305.26001 6625.1099 14516.1 4291136606
-300.07999 6623.27 14517.05 4291136606
-294.81 6619.0601 14507.32 4291136606
-286.78 6624.4199 14501.73 4291136606
-280.57001 6628.1699 14500.14 4291136606
-275.54001 6614.2798 14491.41 4294901760
-270.51999 6615.7798 14494.22 4291136606
-266.72 6616.0298 14490.77 4291136606
-261.64001 6616.21 14492.54 4294901760
-256.67999 6619.29 14487.82 4291136606
-250.95 6619.0601 14481.31 4291136606
-246.53 6619.8198 14484.45 4294901760
-242.62 6617.1802 14485.72 4291136606
-236.78999 6614.0098 14483.86 4294901760
-232.28 6612.23 14481.45 4294901760
-226.67 6615.3101 14476.72 4291136606
-222.03 6609.3501 14476.21 4294901760
-217.53 6607.46 14475.39 4294901760
-211.89999 6609.8599 14471.08 4294901760
-206.99001 6615.1899 14478.72 4291136606
-201.82001 6612.2598 14470.13 4291136606
-197.99001 6611.6001 14472.13 4291136606
-192.96001 6613.1401 14471.49 4291136606
-187.81 6610.5098 14472.76 4294901760
-182.06 6609.2798 14473.4 4294901760
-176.86 6604.4399 14440.49 4294901760
-172.88 6597.71 14440.2 4294901760
-167.7 6593.0098 14422.29 4292374703
-162.63 6592.4399 14422.61 4292374703
-157.53999 6591.3398 14418.11 4292374703
-152.48 6591.3999 14419.79 4292374703
-148.77 6594.8501 14421.66 4292374703
-142.91 6587.23 14408.38 4292374703
-137.95 6591.9502 14412.98 4292374703
-133.42 6586.3398 14400.52 4292374703
-129.00999 6587.0498 14401.88 4294901760
-125.17 6584.4902 14399.79 4294901760
-119.41 6580.2798 14386.7 4294901760
-114.2 6571.25 14374.04 4294901760
-109.67 6563.5601 14362.53 4284175857
-105.16 6557.7402 14355.11 4284175857
-100.53 6543.1602 14324.86 4284175857
-95.309998 6529.3198 14294.39 4284175857
-90.18 6520.4502 14276.59 4284175857
-85.660004 6509.25 14246.56 4284175857
-81.650002 6488.3398 14202.48 4294901760
-76.699997 6490.3901 14203.22 4294901760
-71.099998 6490.3301 14206.58 4294901760
-66.730003 6489.7598 14205.21 4294901760
-62.360001 6487.77 14206.14 4294901760
-58.099998 6498.5698 14206.28 4293801518
-53.07 6493.29 14203.65 4294901760
-47.48 6493.8301 14210.14 4293801518
-43.099998 6491.1899 14209.71 4293801518
-38.139999 6493.71 14216.92 4293801518
-34.439999 6502.5801 14212.88 4293801518
-28.82 6498.5801 14213.07 4294901760
-23.82 6495.73 14219.44 4294901760
-18.83 6493.8398 14215.25 4293326516
-14.47 6492.5601 14212.44 4293326516
-10.11 6492 14209.39 4293326516
-4.5100002 6487.5098 14201.34 4293326516
0.47 6486.1602 14201.95 4293326516
5.4499998 6496.3501 14199.05 4294901760
9.1800003 6493.5601 14201.98 4294901760
14.16 6492.8701 14202.29 4287437351
19.120001 6486.23 14198.61 4287437351
24.719999 6486.7798 14203.41 4294901760
29.120001 6496.7998 14203.77 4287437351
32.849998 6494.8501 14201.35 4287437351
38.459999 6496.1201 14202.41 4287437351
43.43 6494.1602 14199.99 4287437351
48.43 6496.7402 14202.09 4287437351
57.049999 6485.2798 14200.59 4287437351
62.02 6484.6201 14199.23 4287437351
67.610001 6484.6201 14197.55 4287437351
72.07 6493.9199 14198.22 4287437351
76.419998 6493.25 14196.86 4287437351
80.760002 6491.7002 14202.6 4287437351
85.690002 6488.4199 14197.36 4287437351
90.650002 6487.2002 14189.43 4287437351
107.46 6413.3301 14028.46 4294901760
112.22 6404.0898 14022.63 4294901760
116.54 6405.2998 14023.7 4294901760
120.31 6409.9399 14021.54 4285557864
125.19 6407.77 14025.9 4285557864
130.75999 6409.73 14021.54 4285557864
134.88 6401.0698 14018.76 4285557864
139.39999 6411.52 14024.05 4285557864
143.69 6410.7598 14022.6 4294901760
148.55 6408.0498 14020.49 4294901760
154.17 6411.75 14027.09 4285557864
159.03999 6409.71 14024.67 4285557864
162.75 6410.2402 14026.03 4285557864
167.72 6412.0898 14026.78 4285557864
172.60001 6410.6602 14025.73 4285557864
177.59 6413.1201 14027.84 4285557864
182.49001 6412.3101 14028.15 4285557864
186.74001 6410.3701 14020.62 4285557864
191.61 6408.8301 14022.91 4285557864
196.49001 6407.3301 14023.52 4285557864
201.34 6405.1499 14026.21 4285557864
205.72 6407.77 14021.54 4285557864
210.13 6410.9399 14021.68 4285557864
215.64 6410.0801 14023.75 4285557864
220.50999 6408.6201 14020.93 4285557864
225.42999 6408.3901 14024.36 4285557864
229.11 6408.27 14022.6 4285557864
233.92999 6405.5498 14018.82 4285557864
238.99001 6409.25 14023.75 4285557864
243.86 6407.73 14022.6 4285557864
248.97 6412.7598 14026.92 4285557864
253.12 6408.71 14021.98 4285557864
258.09 6409.8101 14024.8 4285557864
262.84 6405.6201 14024.98 4285557864
267.73001 6404.75 14023.52 4285557864
271.72 6397.4302 14016.78 4285557864
275.48999 6399.1499 14022.63 4285557864
280.92001 6410.77 14027.22 4285557864
286.34 6408.04 14020 4285557864
290.10001 6395.9199 14018.76 4285557864
294.97 6408.27 14021.37 4285557864
298.23999 6399.4102 14023.7 4285557864
303.35001 6403.2598 14020.18 4285557864
308.10001 6399.7202 14020.05 4285557864
312.94 6398.1401 14018.9 4285557864
317.32999 6399.8901 14021.41 4285557864
320.78 6395.1201 14018.45 4285557864
326.26999 6394.2202 14017.08 4285557864
331.79001 6405.79 14023.44 4285557864
336.70001 6405.48 14025.11 4285557864
340.28 6403.2202 14027.71 4285557864
344.47 6401.0801 14023.52 4285557864
349.95999 6400.1602 14022.16 4285557864
354.69 6396.6299 14020.35 4294901760
359.17001 6399.75 14018.82 4285557864
362.70001 6396.9102 14016.61 4285557864
368.51999 6401.8198 14020.93 4285557864
373.35001 6400.1899 14021.54 4285557864
378.41 6402.48 14025.42 4285557864
382.47 6398.25 14023.83 4285557864
386.60999 6395.4502 14020.05 4285557864
392 6393.0698 14022.63 4285557864
398.10001 6402.02 14021.68 4285557864
402.26999 6399.8301 14019.26 4285557864
406.69 6401.4199 14025.11 4285557864
410.70001 6396.71 14015.38 4285557864
416.42001 6399.5 14024.05 4285557864
421.29001 6398.5601 14020.93 4285557864
426.20001 6398.2798 14019.26 4285557864
429.79001 6396.75 14016.44 4285557864
434.70001 6396.4199 14016.44 4285557864
439.69 6397.27 14024.36 4285557864
444.79999 6391.0498 14016.92 4285557864
449.13 6391.3198 14021.72 4285557864
453.85001 6397.1099 14017.28 4285557864
458.70999 6395.9902 14020.93 4294901760
463.32999 6391.7002 14019.43 4294901760
468.26999 6391.9199 14022.47 4294901760
472.32001 6388.3999 14017.23 4294901760
475.95001 6387.5098 14015.86 4294901760
480.56 6383.3301 14007.49 4294901760
485.73001 6378.4199 14001.2 4294901760
490.12 6379.48 13998.91 4294901760
493.78 6379.1499 14000.58 4294901760
498.51999 6376.8198 13998.07 4294901760
502.79999 6376.4702 13999.83 4294901760
507.42999 6372.8101 13997.93 4294901760
512.90997 6379.77 13994.56 4283335908
516.27002 6375.6499 13987.95 4286506585
520.41998 6366.1899 13978.7 4286506585
524.78003 6359.4502 13964.78 4286506585
529.44 6356.4302 13964.33 4286506585
533.07001 6348.4502 13949.35 4286506585
536.71997 6348.2202 13946.02 4286506585
541.78998 6350.0898 13931.56 4286506585
551.85999 6346.0098 13924.56 4286506585
555.84003 6342.5298 13915.97 4286506585
559.64001 6336.9702 13909.89 4286506585
564.54999 6337.1099 13914.68 4286506585
569 6332.1099 13911.72 4286506585
573.73999 6330.3901 13910.66 4286506585
578.37 6334.1201 13902.06 4286506585
582.87 6329.8599 13895.46 4286506585
588.27002 6328.6099 13899.1 4294901760
592.83002 6325.0098 13892.19 4286506585
597.07001 6324.5698 13893.86 4286506585
601.13 6322.2998 13889.76 4286506585
605.97998 6321.8398 13888 4286506585
610.39001 6316.8599 13883.37 4294901760
615.54999 6319.6201 13886.95 4286506585
620.09003 6316 13880.03 4286506585
623.71997 6315.5601 13883.37 4286506585
629.23999 6315.7202 13881.4 4294901760
634.22998 6316.6499 13875.69 4286506585
638.66998 6312.23 13875.85 4294901760
643.03003 6312.9902 13882.01 4294901760
646.60999 6306.1001 13874.86 4294901760
651.90997 6304.23 13875.46 4294901760
656.54999 6301.8301 13873.04 4294901760
661.73999 6310.5601 13872.12 4286506585
664.33002 6300.3901 13871.67 4294901760
670.34998 6310.9902 13873.27 4286506585
674.06 6299.98 13873.04 4294901760
683.91998 6306.3501 13864.6 4294901760
686.51001 6296.4102 13848.87 4294901760
690.22998 6285.79 13826.68 4281807870
694.27002 6278.2402 13816.49 4281807870
698.79999 6275.1099 13814.28 4281807870
701.23999 6258.8198 13782.96 4281807870
704.08002 6251.6201 13759.26 4281807870
708.41998 6247.1201 13764.49 4281807870
713.15997 6240.8198 13753.69 4281807870
716.04999 6228.9902 13728.68 4281807870
719.53003 6222.5298 13691.19 4281807870
723.02002 6216.1001 13697.22 4281807870
726.76001 6206.75 13677.84 4281807870
1013.98 6061.6099 13443.16 4290313099
1019.26 6064.6001 13451.53 4290313099
1023.75 6066.3701 13463.8 4290313099
1027.87 6069.5098 13472.08 4290313099
1033.84 6072.96 13488.54 4290313099
1038.74 6073.5601 13469.42 4290313099
1042.8101 6072.8301 13477.9 4290313099
1047.37 6078.4399 13493.38 4290313099
1051.92 6076.98 13500.5 4290313099
1057.25 6079.98 13496.98 4290313099
1062.29 6084.7998 13524.65 4290313099
1067.63 6087.8398 13517.8 4290313099
1071.6801 6090.3301 13524.71 4290313099
1076.99 6093.1401 13548.21 4290313099
1081.8 6093.0601 13534.45 4290313099
1087.48 6097.8799 13547 4290313099
1092.33 6101.3799 13571.86 4290313099
-409.14999 6677.8999 14610.29 4291136606
-404.98001 6683.3599 14617.92 4291136606
-399.78 6682.3398 14616.88 4291136606
-394.88 6697.4702 14643.65 4294901760
-389.54999 6694.3398 14643.57 4294901760
-385.42999 6690.0298 14635.53 4291136606
-380.28 6678.6499 14617.44 4291136606
-374.23001 6673.75 14591.24 4291136606
-369.04999 6673.1299 14580 4291136606
-363.51001 6665.6401 14566.73 4291136606
-359.5 6662.54 14563.19 4291136606
-354.39001 6662.8198 14563.19 4291136606
-349.04999 6658.8599 14548.41 4291136606
-343.85001 6657.21 14544.23 4291136606
-338.22 6647.1299 14545.56 4291136606
-334.07999 6641.0098 14531.74 4291136606
-329.94 6647.6201 14543.88 4291136606
-324.23999 6648.71 14521.73 4294901760
-319.75 6648.2598 14520.27 4291136606
-315.06 6643.75 14519.14 4291136606
-311.07999 6640.6201 14515.6 4291136606
-305.82999 6637.4502 14515.51 4291136606
-300.72 6637.3301 14505.55 4291136606
-295.41 6632.6802 14509.55 4291136606
-291.17001 6637.52 14494 4291136606
-287.01001 6629.9102 14500.87 4291136606
-281.01001 6638.5801 14495.36 4291136606
-276.10001 6627.9102 14493.64 4294901760
-271.01999 6628.1201 14493.64 4291136606
-267.26001 6629.6499 14493.01 4291136606
-262.14999 6629.1499 14493.32 4291136606
-256.26001 6624.8701 14485.27 4294901760
-251.50999 6633.9102 14486.27 4291136606
-246.98 6632.1001 14483.78 4291136606
-243 6627.5801 14480.96 4294901760
-237.17999 6625.04 14480.46 4291136606
-231.97 6621.3701 14473.87 4294901760
-226.88 6621.46 14477.31 4291136606
-221.87 6623.5698 14479.72 4291136606
-218.16 6626.6001 14475.09 4291136606
-212.37 6624.73 14474.28 4291136606
-207.28999 6624.96 14472.59 4294901760
-202.23 6625.8198 14472.28 4291136606
-198.34 6623.3198 14468.41 4294901760
-193.28 6624.1699 14468.09 4291136606
-188.10001 6620.98 14466.32 4294901760
-182.23 6615.2998 14457.23 4294901760
-176.98 6609.0698 14423.19 4292374703
-173.14999 6607.9199 14420.46 4292374703
-168.00999 6605.29 14421.73 4292374703
-162.94 6605.3501 14423.41 4292374703
-157.25999 6606.2402 14421.41 4292374703
-152.77 6603.6699 14419.23 4292374703
-148.96001 6603.2998 14412.73 4292374703
-143.22 6601.4102 14412 4292374703
-138.16 6601.6802 14406.87 4292374703
-133.03999 6599.2402 14401.32 4292374703
-129.22 6598.0698 14398.6 4294901760
-124.65 6590.3999 14385.32 4294901760
-119.55 6588.0801 14376.41 4294901760
-114.25 6573.96 14352.68 4284175857
-109.05 6564.3799 14335.22 4284175857
-105.1 6554.0801 14319.84 4284175857
-100.43 6536.3301 14282.68 4284175857
-95.18 6519.9302 14246.67 4284175857
